ply
format ascii 1.0
element vertex 1047
property float x
property float y
property float z
property uchar red
property uchar green
property uchar blue
end_header
-410.103846 360.444522 2050.929642 211 204 158
-416.799641 233.133054 2058.097458 86 73 128
-410.491133 142.324781 2062.204933 47 50 160
-412.137032 320.613956 2051.662254 24 19 131
-408.418703 355.013895 2047.768211 96 90 154
-400.724840 -75.213230 2071.789169 42 40 1
-415.504265 217.249584 2056.172371 56 47 119
-415.910912 264.503574 2052.990150 26 13 133
-411.411762 319.617033 2048.339462 154 158 187
-415.331221 303.229022 2049.387169 21 16 143
-417.187738 236.744833 2053.206062 51 42 119
-400.315285 -68.343455 2068.525887 160 160 88
-412.723827 316.810608 2047.673416 47 36 128
-415.712929 196.312225 2054.646492 137 135 143
-405.487204 111.686206 2057.891655 171 173 174
-414.822197 311.085272 2047.500420 43 16 122
-409.901285 356.497908 2043.927002 201 196 181
-411.961603 343.839669 2044.922256 198 190 149
-398.264170 -79.205769 2067.751694 169 168 105
-417.209959 239.222574 2050.872231 175 173 160
-418.782663 261.811328 2049.619293 179 175 163
-405.101967 393.525839 2039.486504 200 195 145
-414.887428 220.882154 2050.605965 40 33 124
-401.371670 -75.741786 2065.560150 57 50 3
-414.877272 312.901926 2044.631767 161 165 161
-414.877272 312.901926 2044.631767 161 165 161
-400.795555 40.428442 2057.838821 120 117 60
-417.618179 258.955288 2047.514153 55 38 119
-417.618179 258.955288 2047.514153 55 38 119
-416.735983 360.258722 2040.719604 218 210 167
-407.949591 386.567283 2037.741852 66 73 6
-415.055323 322.645664 2041.912460 22 20 151
-403.456593 41.157150 2056.236267 188 181 118
-418.286419 239.689112 2045.263100 171 174 156
-402.421236 34.433547 2054.818535 189 183 129
-416.986847 197.518992 2047.487640 130 144 188
-417.656136 273.564291 2043.005180 48 28 124
-409.803486 377.886796 2035.592842 211 204 155
-409.803486 377.886796 2035.592842 211 204 155
-416.664171 179.162920 2046.952248 162 167 169
-423.970222 239.379740 2043.576431 150 153 164
-414.969587 351.539421 2035.547447 106 102 163
-409.494114 381.072140 2032.580948 206 200 147
-408.867121 386.194038 2031.804085 198 194 142
-410.188723 382.590556 2028.766441 62 61 3
-405.672216 -28.985667 2051.669312 81 85 27
-417.697620 318.171096 2030.778694 23 7 125
-410.525084 380.952001 2025.978661 196 195 145
-417.793417 322.253990 2030.409050 20 19 148
-418.872690 303.706002 2031.158638 14 6 147
-421.454906 249.071574 2034.447289 189 180 136
-415.322638 136.548781 2039.187241 162 162 178
-415.699291 130.055630 2038.819885 168 169 168
-405.878830 32.584560 2042.843628 113 105 45
-423.175764 214.455247 2034.545517 182 177 150
-412.663031 376.839280 2022.262192 206 201 151
-421.377468 235.834455 2031.104851 177 176 153
-421.377468 235.834455 2031.104851 177 176 153
-409.043312 33.670145 2039.035797 197 186 130
-406.980276 43.966553 2037.982368 101 93 47
-421.260977 195.765281 2030.907822 30 18 138
-421.260977 195.765281 2030.907822 30 18 138
-403.819275 122.331238 2031.548119 60 61 163
-421.348619 267.998290 2026.045609 189 178 137
-411.361504 393.019509 2017.285156 214 207 159
-419.944859 299.988556 2023.383331 167 170 178
-421.580219 235.293436 2026.185417 73 55 119
-416.233397 133.084404 2030.805397 86 73 141
-414.144897 388.543463 2015.624046 98 93 27
-417.202520 364.801431 2017.440605 65 67 10
-405.500746 -7.441667 2036.075401 87 79 20
-414.770031 118.143332 2029.514503 162 166 177
-416.291189 130.286920 2028.295135 167 170 172
-416.291189 130.286920 2028.295135 167 170 172
-421.734524 310.614467 2018.278885 22 7 131
-419.646454 338.989758 2015.137672 72 61 126
-418.079472 350.251579 2014.198112 197 193 170
-408.237267 -13.226835 2031.745148 173 172 103
-409.449434 45.135564 2028.480911 92 90 28
-416.582727 364.672875 2010.965729 84 87 20
-416.781139 118.863368 2024.826622 68 60 150
-420.622730 341.033816 2012.081146 167 169 172
-418.649387 132.637119 2023.382187 166 168 172
-418.649387 132.637119 2023.382187 166 168 172
-421.838236 176.223516 2021.390533 142 143 179
-418.070602 136.454391 2022.319984 165 170 178
-423.500347 250.714850 2015.047264 192 182 136
-413.788652 379.632282 2006.118584 202 198 149
-421.969032 180.324268 2018.640327 25 23 146
-408.300114 -12.134375 2025.853348 183 178 116
-422.684383 312.363434 2009.402275 24 9 141
-424.219322 218.923473 2014.583015 170 166 174
-418.729591 138.575327 2018.126869 53 49 141
-423.509359 195.403814 2015.433502 151 151 168
-419.761038 132.697487 2017.810059 164 159 173
-417.566681 109.936190 2018.393135 162 163 172
-423.483849 292.596865 2008.657837 86 83 125
-418.134022 116.620386 2016.949081 154 160 175
-412.885761 43.519527 2019.700241 135 132 70
-423.964405 307.803679 2005.681610 154 154 171
-423.715162 137.229359 2015.026855 159 156 177
-423.715162 137.229359 2015.026855 159 156 177
-423.974848 317.624569 2004.624748 169 170 169
-424.980688 183.935535 2011.682510 30 24 143
-419.705057 114.794683 2014.566422 82 76 144
-423.295832 177.184820 2011.511421 20 22 150
-422.199917 339.681315 2001.604652 193 188 160
-426.007414 237.947869 2007.612419 155 158 171
-424.249172 303.554726 2002.985764 10 8 137
-418.782377 367.894959 1998.447800 201 203 146
-417.070913 120.429695 2011.697960 57 55 151
-425.551796 295.861435 2003.103828 29 9 124
-411.273193 -16.649853 2017.885208 98 91 31
-425.737190 260.263634 2004.076576 157 158 165
-427.185583 235.531044 2005.651093 50 41 119
-424.881220 307.316017 1999.291229 148 148 184
-419.520760 112.032175 2008.616829 109 104 152
-425.589037 188.080347 2005.379868 38 22 138
-425.432158 262.886119 2001.145172 24 11 134
-426.053858 219.587421 2002.399063 103 101 139
-420.150900 107.519972 2007.505798 58 55 153
-410.293102 121.956551 2004.965210 48 52 162
-427.705145 235.038519 2001.206779 47 41 117
-426.005030 180.202174 2003.602791 38 29 141
-424.980354 312.795544 1995.960045 174 169 165
-422.063875 135.494423 2004.304886 155 158 165
-418.142128 382.136440 1989.474869 79 85 16
-427.414751 223.261285 1999.400711 151 148 153
-420.401096 344.381547 1991.251755 202 199 155
-427.616692 262.510657 1996.385956 178 178 142
-429.736853 113.595855 2004.759789 154 152 159
-425.334406 178.223419 1999.720192 139 145 180
-424.651384 375.547218 1988.739586 213 205 159
-427.884960 216.415930 1998.005295 89 82 128
-425.662994 320.964551 1991.434097 23 18 150
-427.344084 297.359681 1992.894173 62 48 126
-425.884914 249.164414 1995.194054 193 183 135
-426.932669 290.969491 1992.346954 40 22 121
-427.067280 238.955331 1995.066452 61 54 136
-421.786928 340.666866 1987.627983 191 187 165
-431.142330 195.075309 1995.985794 17 13 135
-424.324322 128.543115 1998.367119 156 157 165
-431.418848 121.821773 1995.368767 54 56 164
-421.946669 361.531401 1980.081177 213 205 155
-422.828484 112.738121 1993.700027 65 53 139
-429.537058 260.784554 1986.339378 190 183 138
-429.537058 260.784554 1986.339378 190 183 138
-426.283312 298.922801 1983.140564 169 173 175
-428.331518 193.314219 1989.214325 24 19 149
-430.180454 234.067106 1986.754227 50 37 118
-428.236485 295.954180 1982.393456 27 13 129
-428.657198 303.346801 1981.199265 16 11 143
-424.500036 135.631907 1989.247131 153 159 166
-430.702782 218.473315 1985.425568 185 177 147
-431.567383 231.865621 1984.450340 175 168 159
-427.475262 331.969523 1976.866531 59 48 130
-426.945162 337.435937 1976.465797 121 115 145
-428.721905 179.317939 1984.670830 168 169 154
-428.721905 179.317939 1984.670830 168 169 154
-431.486750 194.257545 1983.006668 32 17 138
-424.093771 109.045148 1986.025047 145 144 173
-416.027164 -21.704432 1991.472816 99 89 40
-412.107515 -49.447638 1991.895294 196 184 128
-412.107515 -49.447638 1991.895294 196 184 128
-430.767155 234.634209 1979.981995 78 65 129
-424.612904 115.977585 1985.181618 78 69 145
-416.965485 -13.453974 1989.411736 105 104 36
-429.230595 248.108339 1977.381516 189 181 135
-420.250320 132.015121 1981.063843 134 130 154
-431.229925 212.645864 1978.068924 183 177 145
-427.442884 139.348185 1981.008530 135 137 172
-430.286837 266.719627 1974.701309 190 184 142
-430.586576 191.330409 1978.795624 40 26 133
-428.053331 128.450274 1980.849266 165 166 176
-428.188705 135.910070 1980.182457 160 162 164
-432.222605 232.322526 1975.770760 186 179 147
-426.461411 350.636458 1967.485046 185 186 186
-430.500126 181.650579 1976.549721 135 139 172
-430.500126 181.650579 1976.549721 135 139 172
-413.594151 -80.309582 1987.096977 182 176 99
-430.571413 306.632161 1969.252777 150 153 181
-430.908012 241.364837 1972.687340 82 68 133
-432.713652 237.621331 1972.239876 177 173 164
-415.138245 -49.634123 1984.034348 190 183 126
-429.042435 334.488297 1966.184998 181 177 176
-429.042435 334.488297 1966.184998 181 177 176
-429.586840 250.082946 1970.042038 185 178 148
-423.474312 113.848400 1975.565720 65 61 154
-422.913599 384.855366 1960.635376 204 198 146
-427.729464 337.387657 1963.833427 73 61 132
-430.387354 331.511378 1964.520264 72 59 129
-430.175495 287.081051 1966.814041 172 173 173
-419.503689 -14.639907 1980.533981 183 177 121
-432.482052 194.378066 1971.657181 31 23 131
-433.512878 241.631508 1967.896843 166 168 160
-431.835079 300.022101 1964.258766 25 18 137
-414.943218 -66.403711 1980.282402 63 69 2
-427.699757 127.674961 1970.668793 147 148 170
-431.242085 327.742243 1960.589409 113 109 129
-431.242085 327.742243 1960.589409 113 109 129
-434.246492 283.547854 1963.332367 20 16 145
-416.654253 -76.186413 1978.674126 178 173 111
-415.629959 -81.646961 1978.321457 178 174 108
-414.348221 -71.165341 1977.436066 172 172 102
-432.583904 187.720585 1967.210960 55 39 140
-418.647337 -59.669852 1976.706123 191 182 125
-432.488251 231.430221 1964.028740 182 178 148
-434.109068 243.535638 1963.085175 174 170 158
-431.959295 338.900495 1957.039833 187 183 164
-434.313774 237.388015 1962.843895 177 175 162
-434.258842 298.283148 1958.024788 23 16 125
-434.192753 287.525558 1958.489227 168 170 163
-429.521370 124.516094 1966.097641 63 61 147
-421.219587 -86.059463 1973.770332 32 33 15
-421.219587 -86.059463 1973.770332 32 33 15
-432.990408 187.199986 1961.410141 166 166 163
-430.440855 122.582698 1963.867950 133 139 184
-426.242161 379.054117 1949.206734 206 200 150
-434.125853 237.166667 1958.155823 109 107 154
-432.339716 132.316983 1958.908844 68 61 137
-422.067451 -59.825641 1966.530991 191 182 126
-434.079361 297.390437 1950.399399 151 150 178
-435.701323 267.880750 1950.468826 174 172 168
-435.936069 219.127822 1951.703262 180 176 150
-421.569538 -86.645758 1964.062881 30 35 14
-436.613464 232.310772 1950.347900 182 177 156
-422.195387 -57.157779 1961.814499 96 93 33
-434.618568 134.023654 1954.324532 119 121 145
-435.233307 298.353267 1945.591545 16 12 151
-436.181545 287.750268 1946.003532 25 13 132
-432.060909 345.501280 1941.899490 90 77 147
-424.396324 -49.670628 1959.388733 160 162 84
-433.633327 195.261550 1948.284721 21 16 133
-436.229181 296.681523 1943.446541 48 46 143
-422.186756 -82.233518 1959.866905 168 168 99
-430.320835 -292.364454 1971.637726 60 58 81
-434.067774 330.071640 1939.918137 52 39 127
-431.585884 362.657785 1937.516022 68 70 15
-423.065853 -79.202521 1956.668854 105 98 39
-424.541807 -75.308233 1956.490517 167 166 95
-437.528229 223.438382 1943.762589 175 172 156
-436.613178 247.470331 1941.891289 191 182 135
-432.342720 187.265062 1943.776894 144 145 163
-438.225698 220.641851 1943.104935 77 69 137
-431.461143 360.921288 1934.439278 198 198 132
-431.561041 374.692822 1932.068443 209 199 151
-425.400448 -83.581489 1953.215408 53 61 6
-434.252977 216.898584 1939.667892 135 132 173
-438.850355 193.785226 1940.638733 28 15 135
-439.032745 270.823526 1936.147499 44 25 130
-438.680840 240.060711 1937.468529 73 65 121
-439.065456 267.153096 1936.101913 185 180 146
-438.731289 184.271157 1939.236641 162 162 164
-434.399176 367.234206 1928.649330 184 184 109
-439.201021 236.297894 1935.998535 171 167 164
-439.201021 236.297894 1935.998535 171 167 164
-434.544373 362.642002 1925.338173 57 64 5
-438.296700 267.209911 1929.621315 182 179 162
-439.859724 191.171670 1933.794785 168 162 156
-439.774323 270.600772 1929.700279 45 26 130
-430.257368 -59.948897 1944.024849 186 178 124
-439.283133 298.761058 1927.800369 24 14 132
-436.952782 137.026751 1935.433006 39 37 143
-397.100592 350.899744 1911.622238 186 188 118
-436.787844 330.014300 1924.135017 81 74 139
-429.492044 -71.119320 1942.465782 47 51 2
-439.203167 127.140951 1933.454704 144 142 172
-440.103102 236.651659 1928.012466 117 113 146
-428.099918 348.772669 1918.801117 211 202 155
-441.050196 217.185235 1927.519989 173 172 160
-433.431959 386.309743 1916.980362 77 80 9
-436.131096 338.425732 1919.979095 184 181 166
-439.405060 294.152474 1922.561836 45 26 128
-439.669800 288.252234 1922.664642 49 37 121
-431.791115 -71.877652 1937.876892 168 166 93
-445.904732 188.156223 1927.996826 154 151 159
-438.698864 296.966386 1920.713043 166 172 180
-431.293678 -76.899600 1937.602425 42 49 1
-450.977945 80.500615 1933.671761 196 185 134
-435.893583 366.897321 1915.985870 161 162 95
-439.641380 195.186543 1924.847794 27 23 143
-443.932962 223.542547 1923.820496 187 181 145
-430.575895 -53.200167 1934.092140 191 180 127
-440.356207 133.362675 1926.948738 154 160 172
-433.049107 -82.573110 1935.137749 125 137 64
-439.289713 336.121035 1915.494347 75 63 144
-441.294146 256.257248 1919.273376 184 179 149
-437.667656 362.152934 1912.655258 77 82 13
-435.044718 373.900962 1910.841179 208 200 151
-442.674255 182.679141 1920.541763 28 21 148
-442.358446 252.105546 1916.771889 36 24 120
-442.914248 222.765899 1917.329216 163 155 163
-434.066200 -76.622075 1929.936409 175 170 100
-440.563202 244.530225 1915.197563 194 181 141
-443.184805 219.790077 1916.540909 73 62 132
-439.898157 336.395502 1909.729576 81 70 148
-440.494680 332.831669 1909.186935 180 179 172
-440.494680 332.831669 1909.186935 180 179 172
-434.938192 -80.079103 1928.182602 79 70 11
-440.007448 70.166320 1921.894264 189 180 122
-440.007448 70.166320 1921.894264 189 180 122
-444.927025 129.519176 1919.832039 140 138 150
-444.927025 129.519176 1919.832039 140 138 150
-439.454937 226.403141 1912.614059 192 181 137
-439.454937 226.403141 1912.614059 192 181 137
-443.751764 211.536622 1914.213753 175 170 157
-441.064835 335.807014 1907.163429 79 70 146
-442.180729 306.386995 1906.233406 14 16 158
-443.004990 135.761189 1914.687347 43 35 142
-438.694096 -10.140480 1919.410133 192 183 127
-438.827467 -87.994343 1923.225403 33 45 6
-443.445969 217.777252 1909.018326 163 161 168
-443.437433 253.201771 1906.696129 180 176 153
-443.437433 253.201771 1906.696129 180 176 153
-440.595341 329.648685 1902.191925 58 52 137
-445.153236 246.956325 1906.483078 178 174 151
-441.841316 331.945467 1900.519753 160 166 186
-439.347887 -24.302885 1916.326332 195 186 133
-442.370367 329.351068 1899.378014 65 54 133
-442.686224 35.928068 1913.221169 191 182 128
-442.686224 35.928068 1913.221169 191 182 128
-444.622326 219.454336 1904.697227 99 88 153
-442.552710 3.080211 1913.814163 88 82 8
-446.380520 27.232453 1912.920952 183 176 117
-442.677689 7.555173 1912.319183 188 180 121
-443.208408 48.023096 1910.025597 66 57 8
-443.497276 30.691889 1910.748291 69 65 5
-444.614601 20.569460 1911.318970 174 169 107
-444.614601 20.569460 1911.318970 174 169 107
-441.337919 -4.982984 1911.414146 111 103 48
-440.443802 -35.825449 1912.577629 189 182 120
-443.509388 53.125954 1908.955383 87 80 21
-445.107603 125.025201 1905.633545 156 161 162
-444.020844 293.456197 1897.101593 165 165 173
-444.020844 293.456197 1897.101593 165 165 173
-443.266106 17.216167 1909.970093 85 81 23
-442.824697 281.106448 1897.120285 12 7 141
-445.654297 248.381686 1899.255943 113 105 139
-443.973875 3.448099 1909.305382 78 73 16
-442.609262 -18.040843 1908.799934 188 181 119
-444.127512 8.826422 1907.547188 187 179 118
-444.578028 122.105849 1902.030945 30 27 156
-441.930914 -27.604625 1908.301163 185 178 124
-443.752909 332.540417 1891.293335 177 178 173
-444.028997 135.411322 1900.199509 18 16 145
-444.417477 34.465075 1904.649925 193 182 130
-444.417477 34.465075 1904.649925 193 182 130
-446.093702 126.134920 1899.682808 131 136 163
-445.315599 40.996355 1903.425980 110 103 49
-444.743347 80.208707 1900.869560 190 178 129
-443.342400 332.973695 1888.350868 150 142 171
-444.093180 5.672354 1904.120445 114 101 56
-444.093180 5.672354 1904.120445 114 101 56
-443.252897 -78.860152 1907.741928 59 55 3
-445.393896 295.594788 1890.252495 151 159 177
-441.388416 -73.374516 1906.851006 160 157 89
-444.220734 329.443669 1888.247871 74 62 138
-445.037985 335.927486 1887.895775 63 49 140
-444.170046 -29.469657 1904.867172 124 112 62
-444.170046 -29.469657 1904.867172 124 112 62
-444.886351 -23.789218 1903.956223 181 175 112
-446.082592 135.813880 1895.115089 14 13 150
-445.633841 8.383791 1900.552177 187 177 115
-446.881819 125.663531 1894.711685 133 134 169
-446.090937 -5.897403 1899.697876 96 90 34
-444.857121 49.671173 1896.709061 184 177 112
-443.351507 -74.050587 1902.009583 57 55 1
-446.309566 19.994456 1897.523308 166 166 95
-446.226978 37.198308 1896.423149 171 169 96
-446.019840 -15.484816 1898.488998 180 174 103
-447.210503 -3.419441 1897.949982 162 159 89
-447.210503 -3.419441 1897.949982 162 159 89
-445.983410 -40.142354 1899.328995 90 80 17
-444.575357 -47.499308 1899.131012 114 107 54
-443.898106 -27.446824 1897.958755 185 176 115
-442.875004 375.486851 1878.380585 125 120 72
-447.339249 28.751293 1895.841599 100 93 35
-447.389269 34.937662 1894.555855 90 85 33
-448.859167 43.666846 1894.424057 179 170 112
-442.507887 371.437359 1876.039124 206 199 149
-442.747068 -45.107365 1895.104599 193 182 127
-445.825624 -79.669297 1897.061157 64 62 4
-447.850370 -57.639217 1896.407127 190 182 125
-447.866106 53.937966 1890.940475 187 177 121
-448.443890 128.337264 1887.388039 65 51 138
-448.266888 63.512546 1889.437103 187 177 124
-447.779083 -7.730404 1891.761017 192 181 126
-448.043060 -41.633955 1892.811775 195 182 130
-446.342134 -78.959149 1893.557930 176 172 97
-446.489477 121.570039 1883.913994 32 29 156
-445.736217 354.294658 1870.711899 205 197 153
-454.719973 -60.484385 1892.042160 191 180 125
-448.835659 53.527421 1883.328247 176 168 101
-615.679073 34.305105 1916.644287 179 173 103
-469.025946 -5.014825 1889.152527 179 173 103
-448.523760 -34.553960 1886.176682 178 175 113
-447.471094 75.576496 1880.476379 60 62 3
-450.325251 -48.192787 1883.768082 106 96 39
-449.979544 62.959290 1875.853157 186 177 126
-442.931938 380.053449 1847.545624 11 4 110
-462.657976 128.378832 1796.303940 0 0 0
-381.235313 166.213059 2165.994263 11 13 11
-382.468319 82.537454 2164.212418 58 51 9
-383.722901 -1.583440 2168.115425 189 183 131
-382.283306 389.134264 2140.519905 188 188 130
-384.826565 36.501428 2164.929581 49 47 7
-384.806776 73.817939 2162.152672 171 174 113
-387.113595 219.125271 2151.004791 187 180 134
-386.768842 57.284683 2161.790657 181 180 121
-385.514975 44.757769 2162.688446 165 164 113
-385.892415 -56.476331 2169.396973 179 172 122
-385.669875 38.963571 2162.623978 176 176 115
-379.545569 -263.373709 2183.923149 40 39 152
-386.643529 26.043078 2163.359833 180 180 115
-384.832907 60.503995 2160.306931 62 64 11
-387.614441 75.037122 2159.157181 182 178 118
-387.614441 75.037122 2159.157181 182 178 118
-387.082195 32.887274 2161.713600 177 176 116
-385.875273 -45.926380 2166.914940 26 36 1
-381.838036 3.697030 2163.171387 182 179 121
-389.572096 341.119003 2138.515854 192 188 150
-385.798955 -2.406503 2162.050056 179 180 124
-386.621475 -43.030488 2164.696884 180 179 117
-387.772679 -266.094804 2180.265808 15 7 130
-388.203716 78.715128 2155.958939 32 41 6
-385.916209 -48.895118 2164.855003 174 176 109
-384.409356 0.545420 2161.025429 72 71 20
-388.067031 -26.344404 2162.454033 49 49 3
-388.181520 -31.718081 2162.676239 179 173 119
-391.695690 143.387723 2149.625587 121 131 169
-389.042497 -39.852273 2162.384796 71 71 12
-385.160255 -82.011718 2164.718437 16 24 9
-388.395500 57.565755 2154.367065 42 42 5
-390.888476 -43.017137 2160.806465 181 177 121
-393.681741 292.077971 2136.695290 165 167 178
-388.532901 16.423187 2155.806351 185 178 126
-389.786720 -31.832927 2158.964920 25 30 2
-390.992761 25.800449 2153.627968 187 181 125
-389.084792 11.761077 2154.562378 74 75 18
-391.739631 80.135256 2149.606323 177 177 107
-390.172815 -18.211068 2155.579758 185 177 130
-392.369795 342.299128 2130.000305 69 62 139
-392.955565 323.728132 2131.182098 15 13 151
-390.647078 -30.853084 2155.872536 179 174 121
-388.523960 -68.490112 2158.434296 178 173 114
-384.696722 385.940027 2126.381302 68 67 11
-391.766357 82.200330 2146.726990 60 56 8
-386.364484 135.266602 2142.697334 25 10 131
-390.494657 -45.041704 2154.862213 179 178 113
-391.560936 43.200025 2148.642349 184 180 118
-391.560936 43.200025 2148.642349 184 180 118
-389.064384 16.789035 2150.138855 186 177 129
-391.094303 -65.403312 2155.748177 24 34 2
-391.094303 -65.403312 2155.748177 24 34 2
-398.342752 300.442410 2130.183220 55 41 123
-389.668059 -22.996068 2152.603531 90 85 36
-392.158413 79.714668 2144.900703 190 183 132
-395.791984 302.693892 2128.393364 157 163 185
-392.778563 68.564075 2144.552040 186 179 125
-392.195082 -26.670632 2151.150513 183 182 125
-393.662024 51.858473 2143.694496 182 177 123
-391.384220 -81.674391 2152.748680 25 30 9
-393.947482 339.015722 2123.596001 186 184 160
-392.053771 364.538598 2121.708870 120 116 63
-400.607777 315.001893 2124.097824 11 10 151
-394.114709 55.350012 2141.838264 185 180 125
-394.114709 55.350012 2141.838264 185 180 125
-397.518158 194.180012 2132.175636 7 10 152
-394.149995 24.787818 2143.777084 173 169 110
-397.398257 235.008240 2129.126930 175 175 166
-316.116238 97.491187 2138.770294 18 22 159
-397.185946 139.784193 2134.841537 161 168 173
-395.858026 -43.905196 2146.790886 52 56 6
-393.731833 21.948822 2142.053795 63 65 15
-396.722531 136.175132 2133.741379 37 20 121
-396.722531 136.175132 2133.741379 37 20 121
-397.416925 299.968028 2122.053719 176 176 166
-396.472597 64.623922 2137.342453 57 54 12
-393.881130 -31.068376 2143.014908 38 44 1
-395.882249 60.524499 2135.568619 188 184 117
-395.168734 -33.830181 2139.841652 184 176 125
-399.251604 301.994109 2116.639709 167 170 185
-396.452022 21.213293 2135.809135 40 37 2
-396.452022 21.213293 2135.809135 40 37 2
-394.995832 -13.753799 2136.547661 61 58 6
-399.684143 300.021291 2114.251518 30 18 122
-400.163651 128.673577 2125.866318 25 30 145
-399.682903 135.458982 2123.838806 19 7 135
-402.023315 251.784325 2114.494896 22 5 137
-398.346829 48.663396 2128.273201 176 171 110
-398.346829 48.663396 2128.273201 176 171 110
-394.442272 -77.883357 2136.544800 158 164 90
-402.144575 200.125813 2116.458511 153 158 177
-401.280689 139.594436 2120.403671 152 158 180
-396.257401 -69.934237 2134.422302 52 59 4
-401.362705 291.731095 2109.603119 128 133 168
-397.710466 49.932462 2125.702286 186 182 122
-402.266979 138.463759 2118.366241 114 114 141
-396.357298 -55.361170 2128.654671 190 180 132
-400.103521 176.631045 2112.641907 17 9 141
-399.162769 14.159504 2123.545837 192 185 131
-402.278948 290.708852 2104.788017 159 163 184
-397.537136 -9.887852 2124.324989 190 188 132
-404.743862 189.584541 2110.834694 45 18 128
-397.099733 -71.162170 2128.301048 52 52 1
-397.199488 -47.859329 2126.551056 69 67 11
-400.415993 57.291794 2118.160439 47 51 4
-404.217625 203.293157 2108.141708 171 172 177
-404.772329 193.081689 2108.528519 171 168 156
-404.772329 193.081689 2108.528519 171 168 156
-397.716117 -7.238663 2121.378326 70 70 10
-395.526767 -11.078713 2121.580124 97 96 40
-398.076463 -12.823050 2121.508598 69 72 17
-398.076463 -12.823050 2121.508598 69 72 17
-395.845270 -63.308430 2124.441719 47 60 0
-404.758501 179.592431 2107.816505 167 169 179
-397.861314 -53.218979 2121.950912 91 85 28
-398.523188 -19.496585 2118.627739 188 180 130
-399.686718 31.475300 2114.234161 166 165 110
-392.211628 379.168415 2090.194130 204 198 151
-409.861231 176.901495 2103.094292 27 19 149
-412.547064 177.044332 2102.866936 27 19 149
-403.966188 138.127232 2105.218887 156 154 168
-398.286963 -44.935527 2117.298126 50 56 2
-544.104862 48.278096 2103.053284 85 87 31
-397.913957 -67.668927 2118.415642 74 73 10
-402.597713 338.407588 2090.884972 124 124 167
-401.775885 25.760099 2111.674881 103 106 43
-398.277140 -74.749506 2118.204880 61 59 9
-400.789547 42.590848 2110.272026 149 154 96
-402.810526 52.414191 2109.620667 186 180 129
-397.141767 370.446491 2087.791443 203 200 139
-396.572924 -19.251573 2113.804817 185 181 128
-401.773596 -5.422997 2112.790298 119 116 65
-400.100517 39.489719 2109.759903 50 53 6
-400.100517 39.489719 2109.759903 50 53 6
-399.135065 -45.321855 2115.037346 132 144 79
-397.625780 60.363799 2107.026100 59 64 16
-399.521494 -0.743282 2110.870743 191 183 132
-398.880410 -67.147660 2115.214157 172 170 93
-399.312139 -3.947823 2110.453987 178 170 121
-400.427341 364.426875 2084.373665 211 204 159
-402.670574 330.326509 2086.281204 189 185 152
-399.319363 -82.154930 2113.687515 54 52 14
-398.243403 -71.011329 2112.518692 51 57 3
-398.243403 -71.011329 2112.518692 51 57 3
-398.852873 -78.470856 2112.962723 61 67 7
-405.065680 135.186040 2098.402596 53 43 127
-405.065680 135.186040 2098.402596 53 43 127
-400.520992 35.119829 2104.963875 65 64 18
-398.662901 -26.619312 2108.669090 179 177 113
-398.923492 24.548009 2104.904366 188 181 126
-398.923492 24.548009 2104.904366 188 181 126
-398.923492 24.548009 2104.904366 188 181 126
-407.554531 194.743955 2092.645073 123 124 128
-398.270345 -67.084867 2109.807396 166 170 94
-399.055243 -66.910595 2109.737206 166 170 94
-398.135304 382.000947 2079.632759 203 199 150
-399.263215 51.239240 2101.326561 189 181 132
-701.596975 293.332577 2089.044189 167 170 185
-413.535881 214.983416 2089.423943 192 182 138
-409.083319 191.200602 2089.816666 168 169 170
-407.743645 298.674798 2082.196045 34 13 127
-400.980282 27.409866 2099.951172 88 87 23
-405.542660 133.931303 2092.315292 34 25 146
-400.791740 21.467677 2099.568939 53 56 3
-398.263788 -10.548524 2101.172066 194 187 122
-406.248665 250.016379 2083.979225 193 186 140
-400.024080 36.860394 2097.747040 188 180 127
-408.749437 292.235351 2080.216789 23 10 129
-399.063325 -74.813849 2103.620720 39 53 1
-406.573296 137.782216 2088.496017 162 166 183
-401.941919 39.506179 2094.829559 54 52 6
-400.938320 18.822727 2094.189072 177 174 108
-405.060625 349.095440 2072.422409 77 62 134
-399.654174 -67.774749 2099.614906 162 167 88
-399.654174 -67.774749 2099.614906 162 167 88
-410.646296 233.575821 2079.351044 78 70 117
-399.258947 -77.110076 2099.299431 186 181 119
-398.857331 -16.426507 2094.978333 188 182 125
-406.182814 338.627839 2071.739960 186 184 167
-409.448290 292.896461 2074.726677 47 38 122
-409.448290 292.896461 2074.726677 47 38 122
-399.897552 -46.843329 2096.070099 190 180 132
-410.146332 269.270420 2074.920464 190 180 143
-410.748005 267.323422 2074.975777 189 183 140
-396.788335 -10.099012 2092.652702 64 69 10
-406.872225 52.946633 2088.628387 202 194 144
-401.577759 -63.344550 2095.766830 32 47 0
-406.966162 127.784050 2083.020592 53 45 152
-411.581659 215.775466 2076.719666 59 43 126
-396.450996 32.681966 2088.327408 185 181 129
-410.922384 240.856695 2074.593925 79 72 130
-403.341913 -82.177967 2095.522118 30 34 13
-416.252756 249.990439 2074.004745 192 183 140
-400.489378 -73.407674 2094.215965 103 102 32
-401.404095 41.573840 2086.470413 190 182 123
-399.494863 -68.392384 2093.127632 171 172 105
-747.579622 50.118601 2084.879875 179 177 113
-412.654448 240.560174 2072.235298 186 184 163
-400.828314 19.689739 2086.275864 176 174 117
-400.828314 19.689739 2086.275864 176 174 117
-401.363039 -4.188709 2086.735344 184 177 124
-628.983641 17.752688 2089.224052 179 177 113
-400.573015 -18.509871 2086.992836 185 179 128
-400.573015 -18.509871 2086.992836 185 179 128
-398.213577 -64.004862 2089.814568 35 48 0
-412.557840 237.536168 2070.037270 55 42 123
-413.313103 218.318892 2069.465446 77 64 133
-399.286938 -31.804362 2084.889030 53 51 2
-404.038000 -6.920523 2081.167412 81 83 30
-400.097084 -72.227758 2084.870911 41 47 0
-407.257128 348.321605 2056.860733 105 96 143
-415.036631 243.246603 2062.137794 74 66 119
-401.108122 31.451911 2074.638748 192 184 135
-414.461660 233.614206 2061.924934 59 49 120
-409.254217 137.196863 2067.607498 164 168 181
-409.719276 124.160087 2068.390274 43 45 148
-413.480282 195.137274 2063.737106 168 170 162
-413.480282 195.137274 2063.737106 168 170 162
-414.552689 290.587664 2056.758499 172 176 170
-413.684797 300.294852 2055.789948 164 163 166
-400.318289 -28.494895 2076.275444 189 183 119
-410.182428 344.231796 2052.107811 199 190 155
-415.343046 224.142051 2059.671593 47 32 126
-400.481558 -75.121355 2078.321266 29 29 1
-402.251863 45.266649 2069.788742 92 89 28
-415.169239 233.172178 2058.044052 73 60 119
-400.687981 -2.594136 2072.238922 82 81 19
-399.463749 -25.539273 2073.484230 82 85 34
-415.433455 188.133991 2059.230232 143 145 171
-400.148821 -11.018628 2070.849228 187 185 121
-402.011776 41.162571 2066.987801 189 188 129
-409.677887 125.451064 2061.190605 145 153 191
-415.122700 303.313708 2049.375343 20 8 148
-416.385698 233.491302 2053.295517 191 185 143
-414.210749 311.149883 2047.475433 41 18 118
-415.305185 188.230169 2055.101204 150 148 181
-416.868114 239.226222 2050.859261 177 174 174
-416.581202 289.896154 2047.604179 142 151 179
-416.581202 289.896154 2047.604179 142 151 179
-402.806330 35.549960 2062.579346 191 185 130
-400.035381 -68.482494 2068.521881 174 171 113
-419.795179 221.086717 2050.773621 50 34 124
-402.523851 40.345675 2061.562347 184 184 118
-414.813328 312.933660 2044.627380 164 161 171
-410.760403 116.112971 2056.942368 82 70 141
-416.840982 259.001136 2047.483635 63 48 121
-411.700106 133.180523 2054.626846 60 45 129
-413.129473 175.501382 2051.856995 17 18 151
-416.364288 285.966611 2044.167137 14 9 145
-416.197062 308.452439 2042.560577 35 23 130
-416.127014 304.763603 2042.574501 19 11 147
-416.127014 304.763603 2042.574501 19 11 147
-402.724075 37.021863 2058.876610 53 55 1
-396.741390 -3.627827 2060.969353 190 182 132
-400.205278 -76.034003 2065.531921 76 72 12
-400.205278 -76.034003 2065.531921 76 72 12
-418.143654 273.600554 2043.021965 49 31 126
-418.074846 259.385896 2042.936516 186 181 157
-416.034031 179.022872 2046.934509 163 164 177
-418.507719 242.670989 2042.663765 61 47 121
-419.197083 236.761451 2043.059158 48 41 124
-402.540350 34.398356 2054.824257 196 189 139
-394.975710 -19.592232 2057.107162 185 178 122
-409.132910 386.578631 2031.872177 203 200 149
-414.561462 336.405087 2034.842110 180 186 169
-414.561462 336.405087 2034.842110 180 186 169
-414.561462 336.405087 2034.842110 180 186 169
-414.561462 336.405087 2034.842110 180 186 169
-420.885897 199.555194 2042.708015 14 22 152
-404.206944 45.389089 2051.383591 76 74 6
-412.045050 110.572410 2046.747208 164 167 175
-402.484369 -20.747958 2054.230118 188 182 129
-402.484369 -20.747958 2054.230118 188 182 129
-404.164028 41.164911 2050.270081 187 187 123
-400.438738 -79.052830 2057.289314 179 177 115
-419.755077 296.281910 2033.604240 22 12 143
-410.097790 381.040239 2025.954056 198 195 140
-418.537235 303.804708 2031.138229 10 8 149
-399.745035 -75.794166 2053.778648 38 45 1
-407.166672 -3.228576 2049.350166 190 181 130
-420.076132 189.398026 2037.803078 17 16 151
-403.170443 -10.392895 2048.807526 181 179 107
-419.641113 313.044453 2025.316811 23 7 130
-415.670443 118.487239 2036.821747 163 163 171
-413.642073 110.110879 2036.076355 160 166 178
-422.749281 299.963570 2023.524284 162 164 174
-420.441914 288.536382 2023.927116 173 175 185
-421.035480 239.117885 2025.539207 184 178 152
-419.824886 180.145180 2029.103851 66 50 136
-419.824886 180.145180 2029.103851 66 50 136
-405.058479 -19.403018 2040.472031 195 183 134
-418.213940 335.452700 2018.920135 172 171 179
-422.285461 322.299576 2019.933128 26 19 151
-416.992569 304.070568 2020.600319 20 9 152
-418.099737 129.040027 2031.468964 160 165 176
-407.699299 40.508717 2035.143280 191 189 121
-413.212442 379.861164 2014.238358 202 198 147
-421.652603 284.856939 2020.381546 21 9 145
-421.068144 182.683098 2026.165771 166 166 180
-422.799683 219.910407 2023.824120 186 182 161
-422.799683 219.910407 2023.824120 186 182 161
-422.799683 219.910407 2023.824120 186 182 161
-420.610094 333.271527 2016.464233 71 66 138
-417.713261 136.291230 2028.045654 161 163 171
-420.103455 318.537879 2016.647720 173 177 186
-418.335247 110.225356 2028.645325 164 168 179
-415.243101 113.045228 2026.112747 170 169 175
-421.842766 338.319993 2011.514664 82 74 135
-425.146675 250.776911 2015.136909 195 186 139
-422.605610 312.474084 2009.390831 30 14 144
-424.596834 239.516115 2013.770866 192 184 146
-424.596834 239.516115 2013.770866 192 184 146
-410.556555 40.546426 2025.148392 128 129 70
-410.556555 40.546426 2025.148392 128 129 70
-420.057583 126.275361 2020.395660 74 71 151
-424.884796 303.265810 2009.423447 15 12 148
-417.424250 113.874733 2019.757462 64 51 140
-417.424250 113.874733 2019.757462 64 51 140
-408.146095 -12.121410 2025.844193 188 184 119
-422.714472 342.669129 2004.931068 203 196 156
-417.924929 356.726456 2003.177834 219 211 172
-425.019741 222.382164 2011.688423 82 70 125
-425.295496 235.708261 2010.083008 83 69 125
-425.295496 235.708261 2010.083008 83 69 125
-411.299896 -4.847725 2023.868561 186 180 126
-420.540190 344.810772 2001.822281 199 195 167
-419.428587 107.514751 2015.535545 48 47 155
-419.428587 107.514751 2015.535545 48 47 155
-424.841595 295.950937 2003.054237 41 28 141
-409.746361 -18.557622 2021.216393 182 176 115
-409.746361 -18.557622 2021.216393 182 176 115
-415.295935 385.382438 1996.658707 206 206 143
-409.217215 -5.673865 2019.715118 197 186 131
-425.317097 318.104124 2000.761986 153 157 176
-425.317097 318.104124 2000.761986 153 157 176
-418.756914 117.781699 2012.504578 162 164 183
-427.735949 260.353875 2004.196739 175 176 162
-422.040319 126.803350 2011.619186 65 64 165
-419.622231 353.375649 1996.636963 196 196 190
-408.470869 -17.080995 2017.733574 93 89 21
-411.099863 -8.195454 2016.553879 96 91 30
-411.099863 -8.195454 2016.553879 96 91 30
-426.300335 188.173652 2005.420685 30 11 134
-427.117777 196.847129 2004.017639 31 21 138
-427.117777 196.847129 2004.017639 31 21 138
-428.088570 219.583869 2002.530479 70 63 127
-427.376318 290.192389 1997.576141 107 100 140
-422.025251 120.069695 2006.979752 48 44 154
-425.497484 180.174875 2003.571510 41 34 154
-428.007460 218.008924 2000.675774 173 172 173
-409.882736 -6.170971 2012.555122 199 186 130
-425.891066 294.256830 1994.731522 176 175 168
-408.445311 -69.933116 2015.288353 182 180 105
-427.908468 262.542725 1996.404076 188 183 155
-428.038359 195.701671 2000.007248 149 151 168
-413.953876 376.319814 1987.974358 219 211 164
-420.501566 379.034328 1988.225937 216 209 162
-427.383614 178.301632 1999.854088 147 153 175
-410.581779 -8.777100 2009.755135 93 88 27
-428.263998 222.479892 1996.842766 64 50 121
-420.448971 117.388618 2001.787376 165 168 180
-428.150320 219.768620 1995.365715 176 176 172
-424.136257 135.380137 1999.553299 161 158 180
-416.756201 -22.042198 2007.756424 197 186 135
-426.031446 332.502747 1987.034225 106 101 134
-414.516783 -4.835824 2006.411552 200 191 139
-423.608875 128.535831 1998.318100 157 162 169
-428.175688 199.148583 1993.788528 23 23 156
-418.869877 384.893751 1981.853676 204 201 143
-418.869877 384.893751 1981.853676 204 201 143
-425.932121 346.032238 1984.302521 108 98 149
-424.671268 349.469495 1983.922195 205 205 180
-428.264332 232.555699 1990.167618 180 177 160
-428.264332 232.555699 1990.167618 180 177 160
-425.383997 132.285488 1995.402908 45 38 150
-420.867443 109.605217 1996.157455 165 166 166
-423.624563 355.177355 1980.626869 208 208 178
-429.944181 260.918808 1986.359596 196 187 144
-426.425219 337.192369 1981.319046 128 125 149
-426.425219 337.192369 1981.319046 128 125 149
-430.702639 184.555483 1990.219688 23 22 153
-426.408052 331.995988 1981.118202 78 63 126
-429.699564 234.065938 1986.719131 57 40 124
-429.699564 234.065938 1986.719131 57 40 124
-422.209072 369.770169 1977.677345 141 138 82
-430.265379 241.455960 1985.772133 70 56 127
-428.360081 352.746391 1977.934647 123 118 169
-429.141808 289.988947 1981.682968 50 42 125
-432.815313 202.527142 1986.831665 38 29 139
-425.603724 345.911479 1977.681923 112 103 146
-424.870157 349.389291 1977.010536 211 208 179
-426.738930 128.102469 1989.570427 155 159 171
-411.146355 -69.812375 1999.555206 179 177 106
-411.707687 -73.135990 1998.331261 76 73 5
-410.337925 -78.326315 1998.172569 58 63 6
-430.910397 240.694904 1980.502319 108 99 131
-429.936647 214.772272 1981.613541 68 55 135
-422.058773 341.593266 1973.206329 204 198 152
-425.426435 128.395581 1986.044121 166 165 175
-431.289768 222.003293 1980.967140 74 59 127
-432.378340 186.009967 1982.140541 76 62 136
-432.378340 186.009967 1982.140541 76 62 136
-425.353765 116.087031 1985.233879 78 72 141
-424.761677 360.254383 1970.449066 124 118 67
-414.534569 -21.985985 1991.370201 111 103 52
-413.980436 -70.333916 1993.530655 175 172 102
-431.759596 212.759447 1978.105545 193 183 152
-430.935192 176.746023 1980.121422 149 155 181
-422.644949 381.377220 1967.410469 95 99 44
-414.205933 -49.057513 1992.038345 196 188 131
-432.039165 266.721845 1974.840927 198 187 144
-431.497049 223.517632 1977.206993 177 174 159
-427.833891 139.363849 1981.038857 147 155 186
-415.074348 -19.447948 1988.625336 186 182 119
-413.709116 -70.068610 1991.485023 172 172 97
-413.605022 -54.623914 1989.646912 62 56 3
-432.618332 214.813447 1974.762344 69 59 123
-433.463097 271.964645 1971.370316 52 34 123
-427.893543 138.473475 1978.203201 63 57 144
-432.112026 192.518735 1975.182152 150 157 185
-409.062576 -66.843897 1988.368034 32 43 0
-428.045511 131.618261 1978.176689 86 74 138
-432.233715 237.586427 1972.202110 185 181 167
-436.490202 109.587443 1979.403305 160 163 177
-432.894516 258.382607 1968.941689 190 183 145
-434.208488 286.996555 1967.156029 163 163 185
-427.776051 361.421919 1961.341667 212 204 154
-427.943611 352.002835 1961.413193 213 210 183
-423.841667 383.172727 1959.204674 211 206 158
-433.179903 184.994411 1970.240593 163 166 172
-429.669285 135.062015 1971.371460 160 163 185
-8.225718 180.469418 1930.876923 22 14 144
-429.777050 130.832553 1968.836784 68 51 139
-429.777050 130.832553 1968.836784 68 51 139
-422.502375 387.576342 1952.512360 87 85 32
-422.502375 387.576342 1952.512360 87 85 32
-432.838392 293.410492 1958.396149 78 64 121
-424.733210 380.633926 1952.526474 104 103 58
-424.733210 380.633926 1952.526474 104 103 58
-431.981850 233.768344 1961.626053 65 54 126
-432.691050 298.320484 1957.884216 18 7 141
-433.708811 287.484574 1958.448029 168 171 175
-430.467939 341.978312 1952.224731 206 198 156
-433.518219 297.791338 1954.002762 141 146 179
-419.989634 -78.649580 1974.091911 64 64 12
-430.341387 348.248601 1950.399971 204 203 174
-435.236549 135.677016 1962.019920 156 161 178
-430.694723 130.127859 1961.887169 125 119 153
-417.755985 -74.853718 1972.356796 39 47 2
-430.103970 357.329583 1947.833443 211 205 160
-430.841780 345.090675 1947.396469 83 66 144
-434.797382 297.402787 1950.465584 148 147 173
-420.183325 -73.673975 1969.385910 60 62 6
-435.706329 287.515354 1949.971581 178 176 170
-433.386850 333.209062 1946.615219 173 173 187
-436.227179 267.813325 1950.522041 185 183 158
-431.739998 347.441459 1945.150185 185 183 196
-435.611773 -216.321278 1977.549553 29 28 157
-434.842920 185.577881 1954.427338 146 146 179
-434.800434 330.561209 1945.520401 65 61 137
-422.277021 -75.104606 1966.906548 170 170 91
-436.542559 254.517937 1949.440193 33 25 138
-436.542177 232.352924 1950.339317 178 177 162
-436.243725 294.379640 1945.728111 152 156 180
-436.520290 287.840557 1946.030426 36 18 144
-434.302235 328.829288 1943.244362 196 192 164
-434.302235 328.829288 1943.244362 196 192 164
-436.700058 267.450738 1944.506454 173 167 168
-422.942114 -52.793598 1961.117935 61 59 3
-432.011700 362.592220 1937.561607 76 73 13
-437.808275 189.503193 1947.474289 87 75 134
-422.893906 -56.111562 1959.026909 177 172 112
-435.183764 341.082549 1936.954498 94 82 137
-437.533188 263.368464 1940.324020 194 186 140
-437.533188 263.368464 1940.324020 194 186 140
-439.255190 282.403135 1939.188576 15 6 146
-437.718821 299.322462 1937.922668 22 21 141
-440.236855 -267.133164 1968.496323 50 54 102
-437.096119 213.143325 1940.386009 188 180 161
-433.537817 126.125598 1944.549370 162 164 174
-439.847136 193.801200 1940.739441 50 42 145
-438.762426 270.800853 1936.120987 54 39 129
-438.360739 257.649899 1936.043930 176 173 165
-438.360739 257.649899 1936.043930 176 173 165
-435.274553 130.159259 1941.882896 146 141 174
-430.424881 384.867001 1926.992035 203 196 135
-437.834120 254.052353 1934.576416 32 19 142
-440.301657 269.856954 1932.871056 28 13 141
-442.603779 230.634236 1934.881020 187 182 149
-436.248398 -199.792361 1957.812500 2 0 68
-440.821743 194.725955 1936.157608 22 14 144
-427.691793 -55.719060 1948.559761 95 90 38
-440.930414 186.864471 1936.377335 59 44 135
-431.801462 383.394718 1923.301888 94 96 40
-437.582350 223.117399 1932.736588 178 175 159
-440.124035 212.112355 1932.895470 180 175 156
-437.571859 298.787093 1927.614975 21 15 145
-441.976357 282.301426 1928.864670 22 16 154
-438.201237 130.634081 1935.684586 74 62 141
-432.216930 359.917545 1921.759987 210 205 155
-440.110731 220.546985 1929.498672 65 51 129
-441.685724 294.069147 1922.816658 44 31 128
-439.998674 288.188863 1922.703552 37 23 127
-440.010262 296.887684 1920.861816 158 160 171
-433.835602 383.037472 1915.337181 195 194 138
-433.835602 383.037472 1915.337181 195 194 138
-430.063534 -56.540412 1938.938522 111 104 60
-430.063534 -56.540412 1938.938522 111 104 60
-436.910963 336.553359 1917.866898 68 55 139
-435.998821 359.337115 1915.559006 211 205 152
-439.015913 332.934237 1917.262650 190 189 173
-431.532145 -71.929967 1937.850571 168 168 96
-440.764809 290.278649 1918.599510 30 22 156
-431.319094 -76.810420 1937.602615 53 52 2
-441.092396 230.871630 1921.516228 173 170 165
-440.551519 329.768348 1915.712738 82 75 153
-442.140198 265.340900 1918.967438 191 187 147
-433.574104 387.399960 1911.260223 194 192 138
-433.574104 387.399960 1911.260223 194 192 138
-442.353821 256.221294 1919.395065 189 182 158
-436.385012 373.695612 1911.003876 209 204 154
-432.152271 -82.719690 1935.042763 150 154 79
-442.457342 252.057028 1916.785431 48 32 133
-443.550014 182.700765 1920.640945 28 21 155
-432.095003 -68.276739 1932.020760 29 46 0
-442.770481 235.222363 1916.537666 165 166 175
-445.567369 244.546747 1915.775108 194 186 144
-431.033993 -55.145639 1930.207062 182 178 112
-436.403894 370.408392 1905.944633 198 193 135
-442.423534 136.722648 1919.142342 24 22 150
-443.039131 238.846731 1913.644409 98 84 137
-435.063791 -78.859633 1929.972839 133 129 62
-443.349934 134.148037 1917.853355 151 155 174
-444.757986 131.329572 1915.458679 88 84 150
-444.757986 131.329572 1915.458679 88 84 150
-443.299389 235.751486 1909.552002 63 54 135
-442.122746 135.721159 1914.583206 32 23 145
-436.282969 -72.351366 1925.086784 153 160 77
-436.282969 -72.351366 1925.086784 153 160 77
-442.982435 77.700722 1917.301559 195 187 132
-443.929482 211.484504 1909.894943 175 174 158
-437.378216 244.230890 1905.762291 197 185 146
-434.203148 -69.343048 1921.312141 25 45 0
-442.974567 76.508170 1913.906097 107 98 49
-444.164705 249.410701 1904.621887 66 54 124
-444.164705 249.410701 1904.621887 66 54 124
-437.621784 -77.390546 1921.013641 24 43 0
-433.753300 379.864025 1895.177078 79 83 21
-439.171267 -57.426518 1919.363785 83 75 22
-443.809748 259.169292 1902.433968 184 184 162
-445.676947 129.265988 1909.378242 36 26 141
-442.855787 35.842150 1913.244247 193 183 128
-444.670820 254.003429 1901.526260 177 174 164
-444.670820 254.003429 1901.526260 177 174 164
-442.338657 3.034511 1913.789558 83 77 11
-440.244293 359.117365 1893.874741 211 205 156
-440.555048 365.826130 1893.235207 200 200 131
-443.102646 370.057511 1893.274307 203 199 140
-439.357471 -73.234493 1916.431808 175 169 92
-444.071484 293.420172 1897.109795 169 170 180
-442.883921 20.327917 1911.115074 174 170 98
-442.533684 -9.437677 1912.623215 193 183 119
-445.198584 125.006735 1905.645752 167 165 169
-442.745829 328.733063 1893.810272 54 41 132
-441.602755 -35.499105 1912.709427 189 182 119
-444.730663 69.968075 1906.330872 188 180 118
-443.009663 3.373281 1909.188080 78 72 10
-441.425228 -49.925143 1911.462784 78 75 14
-443.091059 332.467604 1891.212082 188 184 174
-439.649868 -52.869588 1909.157562 138 137 54
-439.649868 -52.869588 1909.157562 138 137 54
-444.742012 40.923375 1903.355217 113 105 48
-445.249891 23.349175 1904.182816 116 109 55
-441.589117 358.474874 1885.890579 212 205 155
-444.819164 5.744454 1904.210281 119 112 59
-444.874048 284.405828 1889.088058 28 21 154
-445.453930 -42.665762 1905.808640 194 183 126
-444.098568 -29.393280 1904.855728 136 122 67
-439.494181 376.302576 1880.908775 207 202 155
-445.229959 -15.659504 1902.117538 180 174 108
-445.596695 8.349973 1900.548363 186 179 118
-445.349360 16.543710 1899.857140 112 106 43
-440.721989 380.826879 1879.582214 197 197 130
-443.836641 -27.172950 1900.955391 187 180 119
-447.975159 50.027162 1897.104263 190 181 116
-446.359444 22.993016 1898.212051 126 113 50
-447.619677 5.468101 1899.098587 120 110 56
-447.619677 5.468101 1899.098587 120 110 56
-447.759485 40.619323 1896.472740 111 105 40
-447.759485 40.619323 1896.472740 111 105 40
-445.678711 -84.336615 1902.709389 60 71 1
-445.678711 -84.336615 1902.709389 60 71 1
-444.844627 -55.594343 1900.405312 98 91 33
-447.922087 128.228879 1887.321472 62 48 139
-448.431730 63.416451 1889.462280 191 180 130
-441.498280 370.305681 1871.611214 206 198 141
-447.365570 -24.482758 1892.138672 193 182 126
-447.365570 -24.482758 1892.138672 193 182 126
-448.792648 173.563683 1880.093956 195 184 136
-449.383593 -54.918468 1889.819717 92 87 18
-447.279215 124.778116 1879.541206 148 150 175
-449.032259 0.663928 1885.063744 184 180 108
-448.919201 22.990456 1882.662392 88 86 13
-449.513483 -37.827560 1883.842278 100 94 32
-450.342655 -82.032144 1883.693123 233 227 156
-450.342655 -82.032144 1883.693123 233 227 156
-449.661636 45.472807 1875.999451 194 182 129
-451.632214 -42.567930 1879.426384 194 183 131
-450.118732 -71.977943 1876.678658 22 38 0
-450.118732 -71.977943 1876.678658 22 38 0
-459.642935 -280.450368 1887.158775 98 108 160
-444.774914 393.709660 1846.992683 22 10 129
-438.767576 310.823274 1845.940971 68 85 85
-379.907274 395.101237 2155.292702 187 183 137
-384.084010 368.104339 2152.576065 167 168 111
-383.332992 373.819876 2150.890350 29 40 1
-383.332992 373.819876 2150.890350 29 40 1
-379.827881 389.463258 2147.362709 126 127 76
-385.422277 172.660685 2162.009811 171 165 118
-383.557868 68.740118 2166.615868 166 163 105
-386.208010 138.044226 2160.497093 151 151 156
-383.846474 32.756957 2167.693329 171 164 116
-383.616996 75.860053 2164.076233 44 44 9
-386.102629 54.280597 2164.400864 69 67 19
-384.549332 -65.930361 2171.956825 10 22 0
-389.492989 138.743603 2156.200981 150 156 148
-385.021591 63.743412 2162.198448 164 165 111
-387.620115 71.325821 2161.102676 67 69 22
-387.113023 57.374287 2161.748123 166 167 117
-385.031819 -12.457614 2166.378403 52 56 15
-384.894252 32.656586 2161.965370 162 163 107
-383.161068 389.345956 2135.515594 175 177 126
-388.377953 -26.355073 2162.420654 34 38 2
-388.306808 -31.558219 2162.655449 169 163 97
-389.868069 7.831164 2159.114838 42 43 7
-392.897487 302.805877 2136.807251 146 155 180
-388.593960 -39.953789 2162.438583 61 56 8
-391.105962 342.662454 2133.792686 34 24 115
-391.951823 292.181945 2136.868095 150 156 151
-389.543891 4.498864 2157.944870 167 164 109
-389.184928 -31.973565 2159.035683 26 33 3
-371.666741 368.600464 2130.936813 110 119 70
-388.562965 368.256521 2128.520203 37 43 5
-391.502213 180.278611 2141.871643 12 7 141
-386.939478 388.250709 2127.081299 177 183 120
