ply
format ascii 1.0
element vertex 1036
property float x
property float y
property float z
property uchar red
property uchar green
property uchar blue
end_header
1646.479416 -453.039598 3261.772537 87 104 134
1647.510338 -619.598675 3276.643372 108 135 167
1647.510338 -619.598675 3276.643372 108 135 167
1649.371338 -274.438453 3242.153168 139 160 175
1652.270126 -229.068160 3239.155197 117 148 156
1650.584412 -516.933775 3272.008133 68 86 92
1652.764320 -608.721638 3282.283783 133 164 180
1655.883789 -495.274639 3265.636063 141 168 184
1657.820892 -458.293200 3258.992004 121 157 173
1653.985023 -648.610735 3288.927078 80 93 104
1660.277939 -203.726602 3230.666351 96 122 150
1630.951881 732.401657 3218.733597 140 159 137
1665.095329 -187.110126 3225.167847 62 80 97
1662.609100 -180.505502 3231.825638 71 87 89
1660.836411 -515.988207 3269.490814 86 106 142
1663.454437 -420.061588 3255.865479 127 145 154
1664.483643 -442.373276 3257.977295 127 155 176
1664.483643 -442.373276 3257.977295 127 155 176
1665.523911 -551.461172 3267.359924 76 92 128
1659.739876 -643.600321 3290.958023 130 157 168
1665.140915 -429.934216 3257.340240 137 169 182
1663.364029 -577.498102 3277.241516 128 154 173
1665.288734 -506.447935 3269.156647 133 164 184
1644.621277 262.353873 3250.839233 43 50 33
1642.301369 630.960703 3228.439331 139 161 138
1676.252937 -430.400038 3259.535217 136 156 173
1676.252937 -430.400038 3259.535217 136 156 173
1677.175522 -472.429132 3267.077637 83 95 110
1679.561615 -403.565216 3256.297684 85 106 143
1683.838654 -235.965443 3230.629349 74 96 131
1683.838654 -235.965443 3230.629349 74 96 131
1680.855179 -167.660320 3233.384323 123 149 166
1680.311012 -478.516769 3267.474365 134 166 183
1683.884621 -442.367887 3259.669113 127 158 168
1690.758896 -364.137983 3248.607635 164 198 212
1693.077660 -243.869615 3235.150528 57 77 106
1692.576218 -357.694626 3251.069641 146 164 172
1694.635010 -90.907681 3222.250366 115 139 151
1695.269203 -595.286608 3278.205490 123 159 181
1695.254135 -517.566872 3271.344757 84 103 141
1701.739883 -93.716025 3218.920135 53 65 66
1699.065399 -361.817360 3251.615906 155 187 198
1705.176163 229.188037 3180.888748 29 33 17
1698.802376 -600.741529 3278.325272 79 95 105
1704.291153 13.086948 3205.273056 67 81 105
1704.291153 13.086948 3205.273056 67 81 105
1708.643341 118.309736 3196.536446 42 64 68
1708.643341 118.309736 3196.536446 42 64 68
1703.499031 -613.526964 3281.555176 111 137 152
1704.742050 -627.008438 3279.849625 115 140 150
1704.742050 -627.008438 3279.849625 115 140 150
1709.804726 108.760250 3196.129799 119 144 159
1708.237648 -298.289537 3240.402603 129 152 174
1706.335831 -595.823669 3276.231384 131 158 173
1706.335831 -595.823669 3276.231384 131 158 173
1705.357742 -307.628989 3256.263351 34 64 100
1712.888908 -134.765673 3223.236465 83 94 80
1715.541267 339.778137 3170.888710 95 128 151
1715.443802 -126.105666 3217.190170 122 147 168
1715.410042 -375.762105 3244.632339 86 98 94
1718.746758 66.335595 3199.385262 77 88 111
1717.221832 -64.357674 3216.889954 71 87 100
1718.583488 132.753420 3194.921875 67 82 101
1723.633385 425.257254 3162.775230 45 63 86
1718.101311 -603.826714 3277.011871 73 86 100
1722.159195 -480.256748 3260.468674 137 161 178
1730.071831 689.720488 3127.547836 59 90 147
1723.756027 -223.441553 3233.237839 140 177 194
1732.303429 561.898136 3139.175224 64 77 107
1722.633553 -549.045563 3271.905899 149 172 181
1726.639175 -237.324381 3231.964111 59 66 69
1728.075600 90.074909 3198.267555 106 134 150
1729.739380 223.694324 3185.381508 143 170 184
1728.709793 -349.013090 3244.513702 116 149 176
1728.404236 -356.934571 3246.584702 114 138 159
1728.404236 -356.934571 3246.584702 114 138 159
1728.388786 -205.402184 3236.497498 76 103 151
1733.936501 42.894807 3199.851608 135 156 151
1734.623528 510.440445 3153.329659 120 155 180
1730.653191 -84.496433 3221.485519 71 85 99
1737.845039 602.186775 3136.477089 123 146 161
1732.291794 -109.113789 3221.320724 134 159 175
1730.015182 -463.871813 3262.431717 141 172 190
1730.015182 -463.871813 3262.431717 141 172 190
1733.487511 -128.770101 3221.987534 81 110 131
1735.049248 49.012530 3201.987457 53 65 58
1738.567734 425.818825 3159.538651 65 82 88
1741.783905 718.717337 3123.389053 119 155 166
1739.865685 351.468205 3168.281364 38 63 87
1741.686630 609.318638 3138.691902 75 100 124
1738.262558 99.533063 3201.765442 73 89 109
1739.137840 69.368654 3203.166580 69 93 120
1742.841721 387.339044 3165.712547 100 132 162
1741.160965 -641.126585 3270.261765 52 63 69
1743.255043 368.399763 3171.022034 46 78 113
1750.951195 729.335403 3122.003555 134 171 178
1752.776718 620.032597 3129.893303 67 90 116
1745.961761 -174.588561 3225.394058 115 148 206
1746.693420 106.645656 3196.502113 119 152 172
1746.693420 106.645656 3196.502113 119 152 172
1747.725487 -115.325379 3214.945984 71 84 96
1751.755142 591.277456 3137.624168 143 170 188
1749.207878 81.577367 3194.138336 77 92 105
1748.369598 334.211135 3172.861290 73 101 128
1754.156876 633.347464 3129.203606 39 59 70
1748.942375 238.936138 3181.604958 143 169 189
1748.942375 238.936138 3181.604958 143 169 189
1747.828484 -409.076357 3247.108841 77 101 136
1748.831177 -169.288313 3225.025558 114 147 205
1756.133842 713.429832 3122.743988 47 83 112
1754.676628 686.715746 3129.772377 154 184 181
1757.443810 646.770287 3127.065659 150 175 178
1752.746010 374.854517 3167.699814 114 143 167
1752.746010 374.854517 3167.699814 114 143 167
1753.995132 349.367762 3169.920921 60 81 117
1760.033035 716.394329 3123.509407 131 179 190
1760.318947 675.855160 3126.770020 146 176 177
1760.507965 725.248432 3122.521782 51 88 96
1760.947037 667.819357 3128.673744 135 165 170
1763.144302 638.784504 3129.115868 79 104 132
1762.297058 721.928930 3124.081421 28 66 81
1754.719162 -480.229712 3260.886383 153 180 175
1754.719162 -480.229712 3260.886383 153 180 175
1758.889771 -38.821056 3207.730103 69 84 88
1759.413910 -26.147363 3208.989716 51 75 101
1759.567261 356.061077 3172.007179 92 131 160
1760.547638 -354.578304 3237.589645 57 68 82
1756.513786 -424.871349 3256.753922 57 75 86
1762.747002 477.578926 3153.509521 75 101 137
1760.406303 -349.678349 3241.617584 110 143 164
1766.512871 651.067638 3132.719612 142 171 184
1763.103294 463.817501 3160.321999 64 80 103
1762.268639 -128.538191 3220.872879 140 172 187
1765.168190 290.600038 3173.955345 117 150 172
1763.860512 91.648114 3196.895981 112 145 173
1763.474655 -414.783287 3251.493454 135 176 188
1765.643883 -30.991337 3210.779190 128 163 180
1768.428421 454.178429 3159.004021 125 161 180
1765.147591 -483.177662 3259.354019 150 178 170
1765.147591 -483.177662 3259.354019 150 178 170
1766.954803 -446.976995 3250.934982 134 170 190
1766.465187 -64.923251 3216.256332 138 166 185
1767.945862 347.137594 3172.988892 73 92 116
1765.453911 -490.967655 3261.289597 145 164 159
1766.234016 -430.837727 3253.641510 132 162 184
1771.194267 695.649004 3132.338715 60 88 118
1772.914696 609.646749 3137.118149 41 62 89
1775.971985 563.016701 3135.612106 56 75 108
1770.810318 -25.973189 3206.802368 66 93 119
1768.140221 -579.602051 3267.630386 140 172 177
1771.773720 399.841118 3167.225456 52 63 75
1774.053001 11.247810 3199.168968 137 169 173
1776.490784 701.256514 3126.136780 167 195 213
1769.374847 -266.795802 3240.148163 158 177 186
1774.874306 418.737650 3161.389732 60 90 117
1771.030998 -410.029697 3252.406693 65 88 112
1772.248268 -28.799325 3213.933182 124 156 174
1773.463631 114.204574 3197.634506 63 75 84
1773.463631 114.204574 3197.634506 63 75 84
1775.676537 430.148411 3161.519814 59 77 84
1774.593925 377.739859 3170.131493 72 94 125
1774.593925 377.739859 3170.131493 72 94 125
1772.568130 -528.049231 3263.356018 121 147 169
1776.054001 74.372470 3196.354866 108 151 176
1779.859161 518.772793 3143.031502 117 142 148
1773.509789 -347.646213 3244.400787 68 82 98
1776.876640 274.532843 3175.114059 117 153 178
1777.429771 436.880827 3158.038139 107 147 168
1773.668671 -206.147408 3231.045532 67 76 75
1780.555534 670.566559 3128.807068 137 164 167
1776.786613 -103.779340 3214.239120 90 103 94
1776.767159 -146.254671 3220.306015 124 155 168
1775.547409 -173.113537 3227.068710 62 91 127
1775.077248 -463.111258 3256.336594 147 176 183
1781.791496 575.923777 3137.486649 117 140 159
1778.926086 422.103882 3160.940933 128 163 179
1781.985664 571.099806 3139.181137 128 155 174
1783.423233 708.969498 3123.511696 154 185 195
1775.540161 -547.788191 3267.879105 116 142 158
1775.540161 -547.788191 3267.879105 116 142 158
1779.487419 -244.710231 3228.411102 98 140 203
1777.085686 -323.417330 3244.729233 70 89 121
1778.107643 -555.348206 3265.766144 74 87 112
1778.107643 -555.348206 3265.766144 74 87 112
1781.438637 -445.839024 3245.805359 123 154 165
1782.753754 -99.865949 3210.419464 57 70 64
1780.638123 -198.157752 3226.266479 134 161 170
1786.004639 673.716259 3127.805710 49 85 106
1786.004639 673.716259 3127.805710 49 85 106
1783.059502 308.072209 3172.083282 110 144 163
1785.921860 601.880598 3136.792755 39 59 78
1783.905411 255.871058 3176.264954 94 131 164
1783.905411 255.871058 3176.264954 94 131 164
1783.905411 255.871058 3176.264954 94 131 164
1780.612946 -570.239830 3265.602875 65 69 67
1781.203842 -459.476757 3253.555679 58 72 79
1781.064034 -388.804078 3248.373413 66 74 88
1783.894348 515.830612 3153.945541 28 41 55
1784.511185 -193.739629 3221.150970 53 86 128
1784.218407 252.156806 3179.831696 118 151 183
1783.312225 -122.080028 3218.752670 117 142 176
1784.186172 -163.054788 3222.668076 129 155 177
1784.186172 -163.054788 3222.668076 129 155 177
1785.593414 445.308256 3160.977173 94 138 174
1783.154488 -506.881905 3260.009384 119 132 135
1783.154488 -506.881905 3260.009384 119 132 135
1787.213135 298.991752 3171.304703 62 84 107
1787.213135 298.991752 3171.304703 62 84 107
1783.380318 -471.350956 3256.718063 68 76 66
1780.938721 -402.381468 3258.569336 76 90 97
1786.049271 -31.621164 3208.625793 146 171 191
1792.060661 663.430929 3126.015282 144 171 176
1789.190483 -176.495600 3217.023087 69 95 128
1785.935974 203.922439 3190.391159 56 83 112
1788.524818 57.978445 3198.489380 140 171 174
1787.951660 -198.242867 3225.214005 128 152 167
1786.458015 288.110232 3183.485413 36 63 95
1790.176010 429.510784 3159.484673 52 73 84
1790.176010 429.510784 3159.484673 52 73 84
1790.865517 37.514323 3195.701790 64 78 103
1785.903931 -405.847120 3252.765274 64 73 84
1790.980530 23.704030 3197.674942 125 156 170
1790.992546 497.679329 3152.099609 51 70 94
1793.639755 588.271141 3137.709618 68 82 98
1790.357780 -7.884665 3205.237198 84 106 125
1788.356400 -385.244775 3248.490524 131 159 171
1788.356400 -385.244775 3248.490524 131 159 171
1791.349030 386.710620 3165.779686 125 158 179
1791.212463 166.874528 3187.546921 63 84 108
1789.249229 -257.818627 3234.458923 82 104 125
1792.184067 -12.857683 3204.703903 119 153 178
1792.266655 -347.312069 3240.052032 59 85 113
1793.449974 -24.604733 3207.815170 75 88 110
1795.231056 237.998843 3178.984833 130 164 187
1792.290878 -515.961933 3260.655594 159 184 195
1790.815926 -507.178688 3265.030670 73 80 76
1801.575851 681.562424 3119.383240 141 175 194
1796.014214 160.221326 3186.000443 121 153 178
1797.167397 173.113978 3181.859016 121 152 172
1795.067024 -206.653571 3225.385666 55 61 55
1795.647621 -65.299338 3210.088730 140 178 176
1796.267509 -129.086018 3220.899200 131 162 181
1797.413063 -151.999545 3221.261978 80 103 126
1797.413063 -151.999545 3221.261978 80 103 126
1792.190552 736.936903 3151.066399 54 96 85
1799.417686 -338.462806 3235.267258 49 56 67
1800.941467 19.862054 3196.522903 69 91 121
1800.941467 19.862054 3196.522903 69 91 121
1798.319435 122.766340 3194.418907 115 151 174
1795.051003 -480.758905 3262.916946 133 162 181
1802.998924 329.764962 3166.052437 71 91 125
1804.315758 704.103470 3127.354050 122 155 167
1802.613449 5.237517 3199.976158 74 97 117
1800.839996 147.178805 3192.509651 35 52 57
1801.006889 414.336348 3167.739677 54 68 63
1800.336456 -141.147208 3223.329926 66 81 110
1807.137299 657.871437 3126.684570 134 166 187
1803.436279 -263.769031 3228.639603 67 96 129
1800.234985 -399.628186 3251.289368 125 157 169
1807.936478 684.054470 3124.343681 155 179 194
1802.356148 -36.676660 3211.824417 52 71 106
1804.957390 454.351425 3158.065224 130 159 182
1808.704948 534.699917 3143.063545 45 69 77
1807.023621 437.453985 3158.970261 120 155 191
1803.260994 -295.739746 3241.484070 117 146 164
1806.590080 307.117891 3174.316216 96 127 156
1805.494881 -333.525157 3241.459274 145 178 200
1808.941078 89.413887 3190.739822 128 156 162
1809.960938 418.343544 3156.617928 98 137 160
1806.822777 -153.081667 3221.262741 76 97 111
1807.612419 110.977781 3194.281578 64 73 83
1812.268448 377.593160 3155.473137 55 83 120
1809.651947 26.367608 3197.264099 118 152 160
1809.651947 26.367608 3197.264099 118 152 160
1806.282043 -394.984984 3248.357391 37 49 56
1808.925247 101.173270 3193.185997 69 84 103
1815.708351 189.445174 3168.122482 107 137 163
1809.451103 -56.313562 3211.031342 50 71 85
1811.125565 18.546034 3198.888969 84 105 112
1809.795952 95.137465 3195.644569 74 96 120
1809.795952 95.137465 3195.644569 74 96 120
1809.795952 95.137465 3195.644569 74 96 120
1811.207581 344.621849 3170.048332 67 90 125
1809.902954 -179.840195 3225.082016 119 157 180
1806.495857 -424.625349 3259.020233 80 91 88
1809.243584 -398.831558 3248.589706 126 148 164
1810.853386 -199.630213 3225.955963 147 172 184
1810.322762 -473.113394 3257.170868 59 70 78
1809.869003 -541.376114 3265.329361 116 148 175
1813.197899 206.184506 3185.144615 115 149 170
1814.476967 80.989122 3194.428062 61 65 62
1814.476967 80.989122 3194.428062 61 65 62
1816.763496 184.226608 3181.967926 75 93 94
1816.763496 184.226608 3181.967926 75 93 94
1817.053032 424.982882 3160.706902 65 97 141
1813.278770 -561.974382 3271.571350 124 141 139
1823.232651 622.784281 3128.663635 51 76 110
1818.979263 -36.711565 3205.710983 65 81 94
1820.547104 -216.448212 3221.934509 128 159 169
1827.126122 518.361092 3138.785744 84 116 121
1819.208145 -391.489100 3250.794220 71 83 80
1819.208145 -391.489100 3250.794220 71 83 80
1826.696587 648.101187 3128.577042 123 151 165
1826.696587 648.101187 3128.577042 123 151 165
1824.394226 61.015165 3194.438744 128 164 186
1822.627258 -190.529859 3225.390244 78 101 132
1822.627258 -190.529859 3225.390244 78 101 132
1825.012016 460.249090 3155.990219 72 100 124
1825.567055 393.492413 3160.886955 63 89 132
1824.898720 413.093710 3161.266327 73 95 115
1821.809769 -567.176199 3266.319656 70 84 90
1828.274727 539.422464 3141.214371 62 84 94
1823.142624 133.272612 3196.276855 67 94 133
1822.470284 -407.563782 3251.144409 132 160 175
1824.809074 -582.873726 3262.531662 139 162 167
1826.975632 24.115612 3197.410202 122 152 171
1826.975632 24.115612 3197.410202 122 152 171
1829.005432 699.010277 3129.436302 41 68 90
1827.758789 222.521138 3180.577660 146 178 198
1828.374290 436.662245 3159.176064 117 154 182
1828.111076 -83.597398 3211.669922 81 93 107
1829.838753 -54.004061 3206.088257 83 127 189
1829.838753 -54.004061 3206.088257 83 127 189
1831.129074 6.452937 3198.602676 56 79 90
1831.129074 6.452937 3198.602676 56 79 90
1830.182457 -592.859173 3259.991837 39 50 42
1829.465866 -540.421200 3259.560013 54 69 80
1830.469322 -437.021255 3252.030182 129 146 160
1833.233452 696.476555 3134.079933 37 77 96
1834.657860 34.349573 3194.099998 146 174 183
1834.657860 34.349573 3194.099998 146 174 183
1833.254433 228.709483 3181.399345 66 95 139
1832.533455 -21.196267 3208.399200 72 79 94
1834.290123 60.831004 3195.422173 66 93 114
1834.038734 393.117571 3165.951538 63 83 121
1836.028099 -21.400321 3200.467682 72 79 94
1838.257980 663.528204 3128.433990 65 93 107
1835.764694 -211.251855 3221.747208 56 74 104
1833.999062 -429.158783 3249.096298 144 167 185
1832.630157 -135.335219 3225.082016 87 111 129
1836.158371 -247.248435 3230.149460 75 100 131
1841.119385 215.668440 3176.605606 52 67 90
1840.287018 208.723354 3180.135727 117 150 175
1840.872002 4.975390 3199.236298 112 140 148
1837.494087 -446.322346 3254.506302 152 166 164
1843.829727 599.431086 3133.891106 133 164 181
1839.369011 -145.280755 3222.044373 61 83 106
1841.792297 301.738858 3173.332214 52 76 108
1838.922882 -276.759768 3241.078949 76 87 101
1841.977692 -20.528637 3207.602310 143 169 186
1845.582008 195.406103 3176.402283 63 88 120
1844.981766 11.274327 3196.878242 80 108 135
1844.022751 277.968907 3175.113297 44 63 75
1842.761993 -150.670290 3221.786880 103 125 135
1843.919373 132.084525 3191.286659 84 106 143
1845.552635 256.996536 3174.639511 103 138 163
1842.164230 -479.756975 3256.533432 144 168 177
1845.554161 140.837872 3187.591362 136 160 179
1846.291924 265.293789 3174.263763 79 87 88
1845.519829 38.461629 3199.687576 48 64 73
1850.709343 709.264708 3120.969963 151 180 193
1844.229126 -494.714355 3258.606720 123 140 137
1847.764969 261.652780 3174.647331 60 82 87
1850.496674 615.909529 3132.052994 107 140 161
1847.929001 280.427194 3175.048828 116 150 175
1851.734352 63.706881 3186.472511 134 172 202
1846.615219 -561.257839 3264.037323 128 142 130
1850.387001 373.187232 3165.023994 130 163 181
1848.855019 449.920702 3162.629318 56 84 119
1848.855019 449.920702 3162.629318 56 84 119
1849.869347 -75.826722 3210.577774 146 176 194
1849.869347 -75.826722 3210.577774 146 176 194
1850.475883 219.914079 3180.062485 132 170 193
1853.295517 690.640163 3126.928711 22 53 73
1851.643944 474.085903 3153.188324 68 91 131
1849.404526 -273.647428 3233.519363 51 67 79
1851.653671 -268.816638 3228.466797 140 166 176
1852.337074 122.994268 3188.484764 126 163 193
1853.261185 -225.279069 3219.613266 81 103 135
1852.622032 -20.020868 3202.312469 73 96 134
1855.061531 -582.916641 3252.679825 50 59 50
1857.552147 587.914610 3132.222366 126 152 184
1852.482414 -406.319809 3244.589615 57 63 57
1853.985405 1.413022 3200.434875 122 149 161
1857.504463 636.338425 3128.588486 142 174 188
1858.293533 706.743908 3120.511818 131 168 189
1858.395767 560.572243 3137.136650 119 149 172
1858.395767 560.572243 3137.136650 119 149 172
1857.484818 -28.633186 3201.307678 73 95 127
1856.267738 -447.439718 3248.945236 153 178 174
1856.321335 183.151913 3188.422394 71 93 113
1856.321335 183.151913 3188.422394 71 93 113
1856.476974 -453.922415 3251.743698 167 188 185
1859.399033 507.897091 3149.263763 43 68 84
1858.723831 190.421975 3182.361603 119 151 178
1859.303665 379.830432 3162.841225 43 52 57
1856.922913 -81.876498 3215.230560 126 152 175
1863.019371 663.068676 3124.032593 147 171 173
1863.019371 663.068676 3124.032593 147 171 173
1862.287521 -207.207942 3211.363220 51 74 110
1858.626556 -170.063376 3219.181442 75 92 131
1856.797028 -338.122249 3243.285370 49 67 88
1858.868027 124.129164 3192.669678 125 165 177
1860.552979 -198.155057 3220.526123 139 163 178
1859.142876 -519.031048 3256.566620 68 80 75
1861.730957 139.542985 3187.815857 130 159 190
1858.037567 -543.910551 3267.456818 61 68 62
1865.874290 641.276264 3127.951241 142 169 179
1863.410378 501.796150 3150.659370 135 165 189
1863.410378 501.796150 3150.659370 135 165 189
1861.136627 -495.226049 3257.332611 64 77 73
1867.720985 608.219767 3133.079720 97 127 147
1864.908028 -480.763865 3251.639175 146 170 172
1865.246964 -327.175093 3237.528992 68 98 134
1869.519424 -582.165384 3250.109482 110 123 109
1868.040276 63.657236 3193.373680 67 92 133
1868.544388 444.325972 3154.846382 53 75 95
1866.481400 -16.013947 3207.420349 131 162 179
1872.439957 619.177580 3127.631187 94 126 151
1866.054916 -221.088743 3230.745316 61 79 97
1869.610214 148.006439 3186.148643 82 95 107
1866.789246 44.002768 3205.783844 66 95 128
1867.373848 -433.444643 3251.002502 127 160 182
1863.691711 -392.435741 3258.848953 72 88 117
1868.911171 -273.330569 3232.145309 65 83 117
1870.964432 74.942791 3193.625259 147 180 212
1869.301605 -237.289119 3229.870605 120 151 166
1871.927261 105.809724 3188.996124 110 148 175
1874.692535 596.633959 3134.052658 103 131 147
1878.277206 681.311035 3116.531372 137 166 167
1870.465279 -309.197545 3240.525436 73 89 116
1871.488380 -537.561655 3259.657288 61 77 76
1871.488380 -537.561655 3259.657288 61 77 76
1878.258324 583.170414 3131.454659 105 140 164
1875.594521 -77.106833 3206.208420 85 103 132
1877.554893 658.328533 3128.636551 62 84 104
1873.775482 -271.968579 3231.232452 143 170 194
1880.361557 496.197176 3142.211914 106 134 166
1881.111336 562.782669 3136.542702 117 154 179
1874.774742 -359.792185 3246.765518 75 87 87
1878.869438 95.164388 3190.023232 65 84 113
1881.861305 566.709995 3136.112595 122 155 176
1880.473137 515.202045 3146.883202 27 39 49
1879.207993 170.338750 3184.700966 77 100 122
1882.749367 651.021433 3126.673889 153 176 180
1882.749367 651.021433 3126.673889 153 176 180
1880.698204 7.283424 3196.060753 69 95 121
1877.630424 -400.501347 3246.772003 117 150 167
1880.381775 -137.847912 3213.923645 39 55 74
1881.213760 -475.334740 3246.147537 66 82 86
1880.875397 370.700741 3165.605354 111 151 171
1881.766891 174.495435 3184.613419 109 148 165
1881.367493 -189.579868 3221.477890 53 79 113
1885.791397 576.645708 3133.928680 78 95 104
1883.846855 105.159402 3191.070366 137 164 181
1884.461594 -217.670345 3220.562363 128 153 178
1885.664940 109.584796 3186.049461 65 88 100
1885.001945 267.812562 3174.163818 135 164 186
1886.590576 147.835362 3183.018494 74 94 111
1885.260201 -363.691020 3238.420486 73 89 99
1887.205696 -18.769737 3200.978470 126 156 175
1887.205696 -18.769737 3200.978470 126 156 175
1888.019943 491.010284 3149.900055 134 165 181
1886.165428 -540.586805 3257.957458 69 79 75
1889.282227 -554.753208 3251.073456 44 52 54
1889.847565 376.331544 3163.534546 70 88 115
1892.687416 635.816288 3129.241943 139 169 174
1890.552711 256.780672 3174.067879 96 126 154
1891.613388 661.508846 3131.689453 67 107 156
1891.685677 2.165543 3196.548843 133 171 184
1891.867065 428.945589 3156.888008 110 140 185
1891.867065 428.945589 3156.888008 110 140 185
1891.248322 -117.069721 3212.342453 119 153 173
1891.271210 399.121141 3162.896347 59 84 120
1890.454483 -490.686989 3252.565384 66 83 91
1893.929672 -285.518146 3222.624588 110 132 143
1892.471504 -67.293978 3208.501434 133 166 185
1894.850731 694.960737 3129.016876 51 95 109
1900.162125 720.491791 3111.379242 26 61 65
1893.629646 -401.838017 3242.270279 128 164 191
1897.486496 638.114882 3128.700256 55 76 101
1898.829651 645.344973 3126.692390 43 66 92
1895.140648 -148.792386 3216.869354 136 166 185
1897.618866 555.166245 3140.832138 117 149 170
1896.128273 415.464354 3159.747696 49 72 97
1896.128273 415.464354 3159.747696 49 72 97
1895.388794 -6.292134 3204.056931 50 71 96
1896.542740 -378.410006 3239.635849 113 143 161
1896.542740 -378.410006 3239.635849 113 143 161
1897.171593 -82.825649 3209.107971 78 109 137
1897.596741 484.370041 3152.862930 118 148 173
1897.699165 -293.645406 3230.503845 123 149 190
1897.205925 -248.423743 3228.422928 81 114 159
1897.205925 -248.423743 3228.422928 81 114 159
1899.610901 404.117727 3159.563637 124 164 183
1905.765533 682.176399 3115.165520 144 171 175
1902.757072 326.532888 3168.241501 50 82 125
1904.501915 710.065699 3125.326729 79 109 123
1902.317047 -102.473760 3212.117004 64 92 126
1904.660988 198.954892 3180.198288 76 89 108
1904.405212 -166.610730 3220.269394 132 155 175
1909.391022 666.858530 3122.456932 151 178 178
1909.391022 666.858530 3122.456932 151 178 178
1906.551552 -49.859801 3203.495789 131 162 184
1907.559013 438.582039 3152.787781 56 90 132
1906.716728 156.674576 3183.826637 131 160 180
1913.181305 551.093578 3125.032234 125 154 182
1912.977982 683.086395 3115.844917 139 171 172
1908.953094 133.145106 3187.428284 160 180 178
1908.953094 133.145106 3187.428284 160 180 178
1910.062218 402.533007 3157.643890 131 157 185
1912.034988 715.454578 3120.742035 52 100 112
1909.724426 -44.275072 3205.871582 73 93 124
1913.375473 610.199499 3129.907227 92 129 187
1910.662460 -98.663050 3208.607483 121 155 175
1909.781265 -268.287754 3228.923035 112 139 170
1916.158485 698.691559 3116.315842 130 166 184
1912.605286 376.502132 3163.209152 60 81 113
1912.878227 -142.038059 3213.883591 99 111 111
1913.136482 -260.303068 3225.797653 102 126 171
1918.266869 683.665419 3116.571236 134 164 161
1911.919594 -471.500683 3252.018356 70 91 113
1911.400223 -208.709621 3228.186035 72 89 97
1918.128014 691.786051 3118.943214 42 72 90
1918.128014 691.786051 3118.943214 42 72 90
1914.129448 500.930834 3151.025772 126 153 167
1915.186310 -87.412333 3205.616379 57 77 102
1915.740585 -138.552570 3209.059906 59 67 71
1913.716507 -353.667688 3237.656021 52 73 86
1914.779091 -196.989846 3222.386932 73 82 87
1916.950226 -146.132517 3214.076614 58 69 64
1915.628052 -270.132923 3235.739899 119 147 175
1915.555573 -205.344534 3231.805801 55 74 97
1921.429825 22.558671 3192.664528 138 162 174
1920.215797 -98.576546 3209.255981 107 141 158
1920.384789 -539.938354 3252.562714 35 43 43
1920.353699 -150.879467 3215.891266 138 166 170
1919.756699 -416.850233 3244.520569 128 156 167
1920.746231 484.713173 3153.011894 142 168 188
1923.084259 -36.325926 3197.882843 58 92 123
1922.985458 71.628886 3191.541290 137 174 188
1923.920631 261.151195 3171.199989 64 89 121
1923.663139 -155.230927 3213.406754 67 92 126
1923.466301 332.432103 3166.402817 60 83 119
1923.098183 -232.651234 3223.642349 150 175 167
1923.498344 -93.671650 3209.797668 74 95 117
1925.271606 417.056751 3154.179764 107 144 174
1925.995445 450.986576 3150.559425 122 159 185
1928.844643 575.242329 3129.529762 91 124 165
1924.334335 313.941813 3170.392609 83 107 145
1928.211784 546.375751 3134.906006 66 86 102
1928.224182 698.817492 3120.513344 140 170 186
1928.224182 698.817492 3120.513344 140 170 186
1926.130486 500.937414 3147.721481 130 159 177
1929.175949 585.446167 3131.620598 140 169 189
1929.175949 585.446167 3131.620598 140 169 189
1928.450012 229.412270 3169.617081 64 92 129
1926.478958 132.793927 3186.246300 77 104 149
1926.478958 132.793927 3186.246300 77 104 149
1926.026344 -390.187240 3240.015030 108 139 170
1927.527428 88.376272 3188.148499 125 162 184
1928.864098 9.120300 3193.877792 124 152 165
1927.092171 -256.835985 3227.413177 123 156 185
1929.892540 -117.645717 3208.776474 128 159 171
1928.864098 141.918302 3186.891937 165 187 184
1930.776024 135.254693 3181.106186 63 85 125
1932.434464 597.274637 3130.538559 49 66 79
1929.482079 -476.350737 3246.882629 59 70 72
1933.073807 620.900059 3128.969002 95 122 136
1930.248451 -450.662518 3244.108200 111 142 165
1933.985519 695.386744 3121.063232 32 58 80
1931.261826 92.658299 3189.837837 47 71 96
1933.401871 354.212737 3161.735916 117 150 177
1932.946968 -132.988465 3211.330032 124 156 168
1932.876396 -214.234638 3221.561432 142 175 178
1934.918976 122.869825 3182.460213 144 169 167
1934.214211 466.063643 3151.650620 125 155 177
1934.610939 -73.063409 3203.650284 40 62 84
1935.790253 349.362636 3162.462234 45 71 110
1936.272049 719.050169 3125.865364 88 132 146
1934.633636 97.099656 3192.970657 52 69 96
1935.584068 55.067277 3194.245148 115 145 169
1935.483932 -307.941699 3230.551147 40 56 73
1937.728310 541.865683 3140.409660 96 124 151
1937.322807 343.560982 3162.359619 94 125 171
1936.333847 -182.067060 3218.587112 116 150 162
1937.071991 105.387688 3188.458443 122 152 171
1938.083649 88.015419 3191.868591 110 141 156
1939.605331 -47.921097 3201.529694 127 161 182
1940.900421 -33.666372 3202.302551 126 153 188
1941.236687 246.819687 3174.363327 58 73 91
1942.601967 341.763330 3161.828423 57 75 112
1941.210175 -465.280294 3246.593094 122 154 168
1942.831802 385.166812 3160.362816 128 171 192
1941.957855 125.448418 3188.887787 155 178 181
1943.154716 199.983799 3179.001236 68 87 122
1949.313927 715.865278 3110.284805 76 123 131
1942.725754 -146.629202 3219.486618 102 140 200
1948.889351 528.113937 3135.359192 24 48 75
1946.974754 -424.720144 3236.697769 79 94 113
1948.174477 523.672581 3139.417648 105 138 155
1946.253967 22.367775 3195.390320 129 158 172
1946.253967 22.367775 3195.390320 129 158 172
1946.669006 110.378301 3187.294006 55 79 115
1949.752998 575.878668 3131.686211 92 120 142
1946.588516 -220.598292 3221.121597 149 179 175
1949.355125 95.621735 3188.247871 124 163 186
1950.018883 69.718891 3189.883995 139 172 192
1953.101730 552.542973 3133.035088 133 158 181
1950.811577 -400.383902 3235.276794 133 166 191
1949.833679 -433.094501 3242.525482 118 143 163
1951.931572 250.672507 3168.760300 63 78 101
1951.184273 -268.802738 3222.842789 128 162 184
1950.889015 -75.443822 3205.723953 65 91 124
1955.262756 603.569555 3124.152946 73 105 118
1950.841522 345.907331 3166.171074 95 130 183
1950.461006 -417.010641 3243.569565 126 161 179
1951.325798 136.938274 3186.106873 155 181 183
1952.775192 87.994689 3186.953735 144 175 183
1953.026009 296.829271 3167.981339 126 154 174
1953.030396 -458.219337 3245.899582 65 70 59
1953.030396 -458.219337 3245.899582 65 70 59
1955.199051 -104.980218 3205.304337 50 67 87
1955.038643 92.705035 3188.964081 84 112 133
1957.434845 -184.937572 3220.218277 131 169 182
1960.067749 131.781352 3183.193970 65 87 122
1959.656525 -168.895733 3216.846466 118 155 174
1959.791946 176.018274 3182.438278 110 139 167
1963.072205 319.640660 3164.322662 121 155 180
1966.736031 626.877260 3125.574303 78 120 138
1966.896439 17.507945 3188.602638 71 97 126
1966.254807 43.916252 3188.611603 42 68 102
1965.783310 -305.779243 3228.380966 132 170 197
1967.474556 336.517978 3159.654808 118 158 183
1966.333389 -191.223574 3219.226074 57 70 90
1967.631912 469.918823 3151.733398 147 179 196
1970.284653 298.368883 3165.650558 137 177 192
1970.195389 489.255571 3147.428513 59 76 90
1970.646095 -312.718368 3227.647400 34 44 40
1972.308731 -136.778545 3205.610275 155 181 178
1976.044655 -466.202497 3225.151825 134 170 190
1974.929047 -449.596119 3235.961533 51 59 61
1975.663567 -318.810344 3223.457336 112 142 157
1974.795151 222.971010 3174.632645 100 130 155
1975.843239 471.611261 3147.305679 65 97 133
1975.977135 113.556349 3182.350159 61 86 121
1975.470161 205.890393 3176.871681 128 157 184
1979.664421 76.596034 3174.778175 53 86 140
1976.813316 190.238357 3177.846146 118 150 170
1977.322960 -67.327231 3206.996536 129 157 176
1979.594040 368.373418 3162.333488 89 123 159
1982.108307 -411.630011 3231.808853 71 94 127
1983.276558 -467.084360 3234.323883 131 171 188
1987.129974 586.679554 3118.380356 53 74 90
1982.139015 378.374624 3158.966064 93 123 169
1986.553574 -312.480187 3215.641022 57 75 101
1985.293198 312.769794 3163.024330 49 67 87
1987.072182 367.835259 3158.368492 121 153 181
1990.645981 63.689893 3182.653999 74 105 147
1993.227959 -143.933070 3200.621796 124 151 162
1993.227959 -143.933070 3200.621796 124 151 162
1992.885399 -155.878901 3203.849030 62 79 93
1994.843674 27.029261 3179.002762 57 81 113
1993.424225 -12.606250 3188.415718 76 100 117
1996.040916 -461.948490 3226.461792 82 117 134
1992.407036 58.909929 3192.350388 104 134 175
1996.896553 718.794441 3111.197853 111 150 163
1995.510864 77.236122 3180.666733 60 69 86
1995.510864 77.236122 3180.666733 60 69 86
1996.453285 37.098143 3182.074738 21 34 48
1995.798874 158.790481 3173.718262 124 153 180
1997.316360 339.464974 3152.462196 69 87 104
2000.394630 699.671984 3105.741692 106 146 158
1998.057365 411.549997 3145.518303 65 79 94
1996.437836 -215.842390 3214.545059 66 92 111
1996.437836 -215.842390 3214.545059 66 92 111
1998.487663 -150.194442 3201.677322 121 154 176
1999.320412 -475.897026 3232.009506 61 69 63
1999.320412 -475.897026 3232.009506 61 69 63
1999.171638 -35.159230 3188.986969 128 157 176
1998.348999 461.513662 3143.881798 72 88 112
1999.616432 -226.830864 3210.000610 62 69 66
2000.156212 -290.112233 3219.266891 60 69 69
2000.505638 23.953210 3186.909485 121 154 163
2002.270317 532.411480 3129.962730 113 139 142
2001.825523 326.738787 3154.985809 81 99 114
2001.825523 326.738787 3154.985809 81 99 114
2005.124092 653.778267 3113.938522 75 103 122
2002.739334 91.491407 3179.748535 75 100 136
2002.318764 -285.929155 3219.707108 134 164 180
2004.878998 -293.506098 3216.828537 113 129 136
2004.803085 492.921638 3139.045334 65 81 103
2006.326675 230.103445 3162.884140 45 62 88
2005.779457 53.709829 3184.069824 134 164 173
2005.961800 459.476328 3143.120003 78 95 123
2006.614685 -49.148852 3192.697525 121 151 173
2008.895493 596.611929 3120.758629 126 163 180
2008.902550 374.524403 3145.586586 62 94 137
2009.674454 -125.950503 3192.832756 83 97 91
2010.033417 583.800364 3123.865891 142 172 177
2012.591171 648.747921 3111.559677 138 170 179
2008.769989 -286.469078 3219.579697 137 167 172
2010.420227 461.806583 3139.406967 75 99 120
2010.420227 461.806583 3139.406967 75 99 120
2011.698723 694.245386 3111.886787 125 157 160
2010.581589 197.171116 3165.945053 131 162 177
2009.961319 445.261431 3145.679283 61 89 110
2012.766838 384.900546 3144.477844 125 154 167
2011.303139 -170.679665 3206.248856 134 166 179
2013.008881 -143.161976 3200.132370 95 119 143
2013.263893 294.833040 3158.033562 139 163 178
2014.443779 440.020418 3141.690445 124 164 183
2014.685249 138.410699 3171.776772 134 158 168
2013.581848 61.573017 3185.178185 76 105 132
2015.889931 -484.936571 3232.168961 128 155 171
2015.953064 617.785025 3122.180367 101 141 163
2014.835548 -262.162209 3216.044998 81 99 111
2014.944649 -363.946128 3226.071167 63 73 73
2017.220116 -131.204939 3198.337936 66 80 83
2016.581154 -128.943741 3200.568008 82 97 94
2018.017960 -66.309577 3190.580368 187 218 228
2016.236496 -221.827006 3214.142990 136 161 169
2018.193626 -335.354710 3218.093872 129 164 195
2019.855118 657.734013 3112.891197 67 103 129
2019.347382 99.337745 3172.023010 70 87 106
2019.232941 96.276569 3172.916031 97 117 138
2018.449402 -269.611001 3215.950394 122 158 181
2019.286537 407.027102 3146.092224 72 96 137
2019.818115 44.907075 3181.423378 140 156 159
2023.093796 183.323061 3163.840294 47 73 102
2021.680832 -47.332445 3195.016479 49 70 101
2022.188759 74.112517 3181.425858 67 77 73
2023.914146 -132.834744 3199.386597 125 168 183
2026.293373 577.785969 3120.963287 61 86 108
2024.417114 226.843214 3165.031052 78 101 134
2024.732590 -286.490417 3215.613174 144 180 197
2025.517082 -187.103963 3206.085587 119 143 158
2025.927353 361.006761 3151.047325 58 73 114
2026.294708 306.404448 3155.602837 50 74 117
2028.198051 -167.032540 3195.751381 103 139 154
2028.135300 439.004326 3140.551186 81 107 129
2027.434158 -303.693318 3217.458344 139 167 185
2030.169868 518.175268 3128.665733 72 91 99
2031.060410 654.525423 3112.020302 78 111 142
2029.402351 104.931319 3175.964737 147 174 177
2030.382156 -264.866567 3210.464859 91 143 201
2030.093575 -337.451315 3219.278717 153 175 175
2029.350853 -44.292107 3194.243431 64 86 113
2030.374908 119.305837 3174.086761 131 159 172
2030.659866 52.605420 3180.807686 145 181 204
2031.280708 -348.032069 3219.752502 128 151 146
2032.492065 248.893237 3160.495377 146 172 190
2032.212067 -383.489227 3225.322342 138 169 188
2034.609222 520.831871 3125.725174 134 160 169
2033.004951 -293.191838 3215.566635 77 94 118
2033.935547 -64.011186 3191.185188 109 136 172
2034.328270 606.289434 3122.879028 65 95 118
2033.081436 469.575500 3142.223930 117 150 168
2035.175514 206.147313 3162.877464 135 165 184
2036.518669 -464.231014 3226.834488 147 172 168
2035.462379 114.161813 3173.506737 56 74 96
2034.197807 458.459520 3144.216537 59 90 129
2035.550690 -95.248044 3194.546890 113 133 164
2037.174225 589.493465 3120.199394 133 173 190
2036.376762 -313.803911 3215.708542 126 166 199
2036.572838 383.720231 3146.093369 142 167 173
2036.155701 165.618420 3170.195007 87 106 126
2035.661125 232.192659 3166.119766 71 93 132
2035.661125 232.192659 3166.119766 71 93 132
2037.282562 423.273277 3143.969154 62 84 114
2037.677002 -50.705594 3192.952156 121 151 167
2037.677002 -50.705594 3192.952156 121 151 167
2038.711929 334.186387 3152.216911 131 160 180
2038.711929 334.186387 3152.216911 131 160 180
2038.578415 449.954557 3143.178940 118 160 181
2040.519714 516.174126 3129.276085 62 84 92
2041.930962 -160.593522 3193.385124 81 102 133
2041.714096 -463.278437 3228.902054 81 113 148
2041.217041 471.500349 3138.945007 67 90 109
2041.553307 -144.030321 3200.054550 76 103 128
2042.733765 111.018932 3173.809433 54 74 103
2042.609024 363.317466 3151.303291 64 94 143
2043.271065 -274.881196 3213.949966 63 88 125
2043.589783 -323.818254 3218.396378 141 172 199
2044.229889 -194.123518 3205.424118 69 96 126
2044.474220 270.577526 3158.981514 140 174 194
2045.730591 286.379910 3155.980682 118 148 171
2045.514488 -12.999122 3190.077972 82 111 133
2047.161865 -223.451781 3209.991455 129 159 179
2047.396088 408.355713 3145.971680 96 119 141
2049.320602 675.161934 3111.614418 64 102 128
2048.209000 -389.441490 3225.130081 78 99 125
2049.714661 -115.374470 3193.223763 84 99 105
2050.109863 25.392452 3178.263283 80 96 116
2048.992920 -89.640200 3196.084404 143 179 191
2049.655342 -158.409655 3200.484467 133 163 178
2049.992180 94.901645 3173.844719 62 83 98
2051.058388 -503.447247 3230.032349 91 114 118
2048.601532 60.504502 3188.067055 91 111 135
2058.133698 721.494198 3088.823509 36 85 87
2058.133698 721.494198 3088.823509 36 85 87
2054.442024 594.547224 3117.495537 72 86 114
2054.405594 613.325262 3116.759491 52 71 91
2051.758575 484.851551 3140.488434 118 145 155
2054.856110 -480.200052 3225.618744 72 86 103
2052.764130 305.019903 3157.868958 124 160 181
2053.891373 140.019166 3170.496368 130 161 176
2056.314278 680.793333 3106.781578 121 157 168
2054.230690 327.077389 3152.115250 61 79 89
2054.045105 227.271652 3162.876320 64 91 130
2053.497505 454.687357 3142.812538 78 101 144
2054.403305 -255.508685 3212.416840 118 157 180
2055.003166 231.825447 3164.171600 107 137 176
2057.641220 564.560080 3120.512009 111 151 164
2057.641220 564.560080 3120.512009 111 151 164
2057.572174 -474.549007 3225.249481 138 171 192
2056.255913 -180.838704 3202.514648 72 86 91
2056.001282 355.912852 3150.864029 69 93 109
2056.365395 -441.484404 3229.839706 59 75 100
2056.575966 -114.449978 3197.182846 71 90 96
2057.828903 -325.829434 3214.250183 92 110 138
2056.123161 -171.118784 3205.736923 158 188 188
2058.924294 530.061483 3124.794006 66 95 113
2057.226753 460.464382 3147.185898 79 104 145
2057.226753 460.464382 3147.185898 79 104 145
2060.429001 24.767028 3178.421593 79 100 116
2059.884071 205.102205 3163.530540 142 170 184
2059.295845 -145.984411 3202.204895 75 93 112
2059.616089 -361.894298 3224.460983 75 97 146
2062.391853 652.514362 3116.731071 134 163 171
2065.891457 662.238407 3103.617477 124 154 161
2060.789490 -61.061406 3197.352791 62 94 144
2062.588882 -287.819529 3215.015030 106 141 156
2064.581680 575.028181 3123.629951 65 98 124
2064.811707 588.977909 3121.670341 71 97 127
2064.030075 -129.792905 3197.766495 73 101 130
2064.030075 -129.792905 3197.766495 73 101 130
2065.443039 671.055079 3111.656380 84 117 137
2063.836098 304.751849 3157.276917 129 167 174
2066.043663 -104.023743 3191.872406 137 170 187
2064.902115 472.702312 3144.976616 67 77 93
2067.631912 76.114440 3176.725769 53 67 69
2064.552879 99.088013 3189.272881 69 93 103
2068.066216 -263.709903 3215.993881 135 169 187
2070.135117 32.453185 3177.816963 32 45 46
2068.796730 465.894699 3139.742088 138 171 189
2072.134972 664.142990 3107.087898 128 162 170
2069.071770 -256.516814 3212.928772 126 156 170
2070.347595 599.624443 3123.255539 131 155 168
2070.721436 112.250602 3172.601891 58 82 99
2070.721436 112.250602 3172.601891 58 82 99
2070.735359 -430.383253 3227.925873 64 79 99
2070.735359 -430.383253 3227.925873 64 79 99
2070.735359 -430.383253 3227.925873 64 79 99
2070.682907 -359.819102 3221.765900 46 56 60
2071.831703 -318.404007 3216.230011 133 176 208
2072.455215 416.478491 3140.144157 130 169 193
2071.610832 222.787976 3164.879227 152 174 191
2071.602058 239.703512 3164.408302 115 152 175
2071.602058 239.703512 3164.408302 115 152 175
2073.635483 348.314023 3146.861076 92 113 139
2073.766518 383.356237 3145.379448 123 156 181
2072.191048 476.642609 3144.648933 94 113 121
2075.388336 281.808710 3151.640129 61 81 96
2073.848534 407.865715 3145.373917 76 100 149
2075.301743 -133.710766 3195.332336 64 91 121
2079.303551 655.219698 3101.155090 54 83 79
2074.968719 -361.934805 3222.415161 57 70 73
2076.555443 -8.338317 3181.459999 80 100 119
2075.605774 46.657503 3183.161163 128 152 167
2078.222084 -476.667929 3226.477051 47 55 54
2075.179482 493.525505 3141.561508 63 94 128
2077.587891 -104.059255 3192.595100 139 167 184
2076.827812 -449.621725 3232.804871 118 138 144
2078.308487 423.547888 3139.311600 56 66 76
2077.540016 -122.619176 3199.112892 117 150 163
2079.154396 644.510365 3117.438698 44 70 102
2078.326607 -192.621601 3206.198883 68 94 124
2078.663826 -209.114051 3206.674194 152 180 180
2078.663826 -209.114051 3206.674194 152 180 180
2079.891396 59.124404 3175.634193 130 171 197
2079.891396 59.124404 3175.634193 130 171 197
2079.801369 231.255770 3159.055901 111 136 170
2080.820465 691.151285 3108.887100 39 68 81
2079.179764 -192.878962 3204.896927 68 94 124
2079.138565 364.295220 3149.400520 83 111 155
2081.035042 -1.887905 3180.172157 58 73 88
2079.653549 -240.664911 3210.456085 123 156 174
2079.014206 -352.928948 3225.430298 143 170 168
2082.007980 618.452454 3115.126228 128 169 186
2079.438591 -352.904940 3224.170685 143 170 168
2080.861855 126.857424 3170.141411 86 110 138
2080.367470 -282.368279 3215.117264 132 166 185
2080.922318 -177.447474 3203.000641 141 164 175
2083.931923 582.606649 3113.722801 118 142 156
2083.718109 666.024590 3108.840561 118 144 152
2081.919670 -16.960922 3185.843277 128 157 174
2082.028389 407.832432 3144.457626 162 187 193
2082.943153 266.125035 3157.862854 67 94 116
2084.187126 218.720984 3160.282707 56 76 93
2084.475517 -433.725500 3228.245163 128 152 163
2086.145592 629.805803 3113.674545 122 147 165
2085.825157 649.321747 3114.940262 129 157 176
2087.481880 698.984623 3105.226898 117 145 155
2087.353134 174.802577 3161.390114 135 162 163
2088.024902 9.145848 3178.867912 159 179 177
2087.967491 -4.625004 3182.001114 140 168 180
2087.246704 471.032715 3138.017464 52 78 105
2087.271881 658.869791 3119.427109 65 85 108
2086.354828 -398.332310 3230.522156 87 114 148
2088.437462 103.376484 3171.509361 137 169 192
2089.599037 26.668927 3177.342033 152 172 167
2090.103722 621.389151 3116.773605 139 175 186
2089.263344 322.553396 3150.682831 150 173 167
2090.028572 -37.240955 3184.490585 130 167 181
2087.947273 217.317605 3167.886734 84 103 128
2091.119576 614.488316 3114.419556 61 78 93
2090.544891 629.203749 3117.723656 57 85 101
2090.686035 -239.734077 3207.903290 145 173 177
2090.696335 226.230860 3161.833382 150 177 173
2092.539215 102.991021 3166.516113 134 165 181
2091.710091 -79.866612 3191.157150 64 77 77
2091.815758 -7.953156 3183.952141 65 89 108
2092.085648 126.278269 3169.924736 62 88 124
2092.584991 34.409010 3177.461433 119 141 150
2094.057655 647.499084 3110.917854 64 94 114
2091.716957 270.034289 3159.971809 154 177 181
2092.406082 -167.249751 3202.572632 36 55 65
2092.760277 197.081959 3164.834404 71 93 138
2093.235016 -37.555355 3188.790894 126 158 174
2093.235016 -37.555355 3188.790894 126 158 174
2093.155289 565.636253 3128.143311 95 113 140
2093.155289 565.636253 3128.143311 95 113 140
2094.003677 -58.903414 3187.922859 38 60 81
2093.187904 -386.627007 3225.153351 153 175 177
2092.580605 430.051994 3145.124435 160 184 187
2094.287491 22.341000 3179.513741 72 103 135
2095.248604 701.672411 3109.086990 121 157 174
2096.081924 546.891069 3121.248627 138 165 171
2093.848610 156.263399 3171.812439 118 145 162
2094.773865 262.756348 3157.206726 56 92 138
2095.174408 -430.045080 3226.021576 61 74 90
2096.394348 608.958530 3116.241455 142 169 169
2095.745850 302.949572 3153.331947 140 166 167
2095.516968 292.762280 3155.860710 82 103 124
2097.221947 516.561794 3126.807785 52 69 78
2097.848511 218.068194 3156.500626 64 87 103
2096.364021 496.582651 3135.375023 145 178 185
2098.561859 692.202091 3106.639099 30 53 61
2097.086143 325.423861 3150.141907 69 94 115
2098.708153 30.493400 3175.446701 18 39 59
2098.708153 30.493400 3175.446701 18 39 59
2098.673248 -434.988117 3223.926926 147 177 181
2097.622871 514.489603 3132.154846 41 58 65
2097.055817 248.963404 3161.819267 76 105 127
2097.663307 442.173290 3143.350983 76 107 134
2099.037743 173.474491 3165.941048 127 161 171
2099.765587 -368.574023 3218.012619 138 160 159
2098.475838 392.397141 3147.504616 87 119 153
2102.354050 -83.988190 3184.034920 87 104 116
2101.064110 344.475794 3147.449112 144 174 186
2102.576065 567.495823 3120.351410 135 162 164
2102.159309 226.888990 3160.113907 112 139 158
2102.160454 -189.722991 3202.610397 109 145 165
2101.576424 -222.930527 3210.418320 134 167 178
2103.126526 -204.318142 3203.722763 110 148 178
2105.314255 59.429336 3169.749451 84 105 144
2109.811783 -465.017176 3205.599213 82 105 123
2109.811783 -465.017176 3205.599213 82 105 123
2104.080391 120.532167 3171.019173 111 144 157
2104.896164 254.261780 3154.582977 142 164 165
2104.646111 -263.160014 3211.691666 129 163 181
2105.045128 -317.821145 3215.773010 77 95 110
2105.358315 29.398561 3179.703331 60 79 97
2105.062294 -155.193043 3200.877380 121 156 169
2105.062294 -155.193043 3200.877380 121 156 169
2106.394005 691.622162 3111.030197 129 162 169
2105.091476 87.167341 3179.251671 127 156 177
2106.008911 -273.133588 3212.965012 134 171 194
2106.837082 -376.884317 3220.705414 78 93 114
2106.541443 -41.799781 3188.939667 55 71 89
2108.311272 576.307011 3118.533707 77 94 117
2106.858635 70.126683 3176.342964 137 170 190
2107.754707 -328.163123 3214.874268 81 102 133
2107.390785 246.977520 3158.294868 165 194 199
2106.465721 199.148893 3168.705940 54 80 116
2107.876205 -428.070879 3226.523209 83 105 126
2109.328079 10.671059 3177.809143 50 81 108
2109.613991 -266.749024 3209.888077 65 81 94
2109.613991 -266.749024 3209.888077 65 81 94
2110.488510 -345.809150 3216.748428 66 87 102
2112.008095 522.333193 3122.447968 133 152 160
2110.977364 199.624169 3160.039330 55 80 111
2110.631180 664.561558 3115.392113 46 63 81
2110.879898 -72.647178 3190.616989 164 212 228
2111.404037 -64.577532 3188.990784 87 109 144
2112.804222 -61.728209 3182.960701 68 93 125
2114.247322 224.941778 3156.133080 62 76 99
2114.173317 -161.849761 3195.856857 66 88 131
2113.234711 109.584641 3173.462486 62 87 120
2115.349197 618.328142 3117.363358 139 164 165
2115.607834 125.100482 3168.695068 50 70 92
2115.537071 -293.261671 3214.149475 60 88 125
2117.994690 59.683836 3169.832802 103 127 161
2115.966606 478.212786 3140.018463 141 169 182
2116.713524 388.141203 3145.873833 72 102 133
2117.748642 -122.319865 3196.335030 117 153 172
2118.543625 -187.996578 3202.188873 130 162 175
2118.459129 -289.412308 3214.442825 131 173 191
2118.459129 -289.412308 3214.442825 131 173 191
2117.210960 459.115744 3145.633125 142 165 184
2119.331932 200.527573 3164.682961 61 88 122
2121.877289 620.290709 3114.631844 60 84 125
2121.141243 481.516314 3132.153130 129 158 173
2121.076202 -459.385633 3229.905319 83 110 151
2120.018768 320.550108 3155.219841 139 164 166
2123.473930 546.927881 3122.668839 151 172 177
2123.664284 689.592505 3108.168030 76 105 134
2123.661423 -26.340181 3182.629967 56 91 146
2124.347115 139.174032 3164.927673 128 153 169
2121.433258 -355.700326 3231.845093 55 75 76
2125.885582 623.596239 3112.599182 69 92 129
2124.812698 104.295897 3170.962334 114 151 175
2125.570488 581.223583 3118.909073 132 157 164
2125.570488 581.223583 3118.909073 132 157 164
2124.518967 -125.176990 3196.267319 44 64 89
2124.318695 -55.450648 3191.944885 105 134 150
2126.529694 605.938578 3116.936684 140 170 176
2126.228714 47.802284 3175.367546 134 164 187
2127.144241 641.702080 3113.510132 142 170 173
2126.518059 121.834671 3169.713402 115 149 180
2127.394485 296.194339 3151.235390 51 56 64
2127.394485 296.194339 3151.235390 51 56 64
2127.895737 155.733693 3165.124893 109 138 161
2127.895737 155.733693 3165.124893 109 138 161
2128.748512 557.717037 3122.420502 79 98 115
