ply
format ascii 1.0
element vertex 1051
property float x
property float y
property float z
property uchar red
property uchar green
property uchar blue
end_header
44.063172 -210.628057 1890.163231 137 138 111
569.599009 197.641122 2128.296852 238 226 188
543.847990 347.034407 2108.270264 228 219 179
54.715067 -259.648538 1899.804115 145 145 116
48.924226 -333.165193 1901.007271 151 150 126
560.980320 134.163082 2128.768539 228 219 181
572.235537 24.414153 2140.245056 183 176 145
39.943466 -347.168350 1897.817039 151 153 128
-153.621602 -358.374882 1804.603577 160 158 134
522.890329 396.804070 2097.409058 205 195 156
563.840532 256.039476 2124.910545 244 234 200
449.485064 -54.428071 2085.621452 175 202 198
43.943280 -319.722700 1902.456093 167 163 140
52.252060 -279.371810 1904.922485 201 201 178
567.546320 15.201361 2141.812134 251 249 217
561.173058 171.979213 2130.779266 220 212 177
553.475714 292.793727 2121.094131 189 185 150
548.914099 327.662873 2117.201042 239 229 192
560.707855 148.834693 2132.412338 193 182 147
540.575743 348.186207 2112.459564 124 114 86
43.172643 -328.112698 1905.137253 152 155 129
52.201253 -253.535819 1906.489944 161 158 128
559.431458 132.249391 2134.199333 163 149 117
559.431458 132.249391 2134.199333 163 149 117
562.506151 236.770749 2130.492401 255 254 225
545.711851 322.708893 2118.575096 153 139 101
443.952465 -48.962867 2088.415909 152 213 216
443.952465 -48.962867 2088.415909 152 213 216
46.263051 -292.541957 1907.543945 143 145 122
439.556837 -54.909241 2088.948441 160 199 198
559.175062 12.451699 2143.734741 199 190 163
45.992532 -240.047765 1908.357811 142 139 110
557.710075 257.152462 2131.298637 230 218 182
32.549968 -163.216841 1898.946190 199 195 170
32.549968 -163.216841 1898.946190 199 195 170
559.819221 236.077952 2134.486580 182 167 129
46.583012 -275.340891 1913.062096 196 192 167
-4.899771 -407.491302 1895.093727 149 148 116
438.619947 -56.388754 2091.512871 148 188 193
556.676292 87.793750 2142.486382 187 180 147
23.866540 -340.244269 1908.629227 188 188 167
531.629992 351.604652 2117.457962 146 139 116
551.602030 286.123848 2130.589676 224 216 179
38.272631 -222.271490 1913.651276 133 131 103
549.723768 280.522656 2133.254051 236 227 192
507.588625 405.423975 2106.719398 133 127 101
29.168788 -162.801015 1909.098434 135 131 95
503.789568 408.253956 2107.595444 146 139 110
552.379513 244.496775 2139.368629 187 179 152
508.448362 402.636003 2110.329819 192 188 162
36.907977 -219.671297 1919.527245 180 176 148
524.298620 357.357740 2122.366905 218 209 175
552.279091 211.130691 2143.729401 205 198 164
549.309349 239.201236 2140.846825 180 176 141
22.167949 -331.425524 1920.591927 199 197 174
527.394629 350.655937 2127.330208 219 207 171
549.103355 245.078063 2143.459320 232 225 192
542.445898 22.963028 2152.092171 251 241 208
545.389605 60.205638 2152.213478 214 206 178
545.543528 269.229078 2141.403389 159 150 124
529.127216 333.916306 2131.233025 237 228 190
35.077381 -268.313336 1930.233192 142 145 123
536.387634 310.335636 2136.496162 157 150 117
521.486235 356.260967 2127.170181 241 234 202
548.143625 209.442472 2148.244858 229 216 172
523.970366 353.518510 2129.315376 183 173 140
541.155767 130.142426 2149.339485 216 210 172
30.916142 -235.365820 1928.965950 138 142 121
479.041624 425.736570 2105.148697 167 158 122
531.346226 314.617705 2137.220573 231 220 184
540.486765 285.308480 2143.541336 171 165 134
539.639950 128.469324 2152.017021 104 89 68
538.562059 44.835085 2156.244659 253 241 204
539.105034 56.437659 2156.290436 253 245 213
521.910000 11.022472 2151.695824 244 238 201
17.649041 -314.776587 1934.423065 185 184 161
538.208055 114.611685 2154.644203 171 166 132
537.138128 61.393392 2157.392502 185 176 149
532.636690 37.872756 2157.350540 245 237 203
525.931454 20.565993 2155.326462 250 243 207
525.931454 20.565993 2155.326462 250 243 207
26.842451 -209.501314 1935.484314 171 163 131
25.667989 -231.390977 1936.368561 209 205 177
-20.952135 -368.389606 1923.502731 174 175 155
534.838915 107.741845 2157.088661 240 231 191
535.027885 110.911405 2157.184029 143 137 104
23.900895 -235.844827 1938.837814 144 146 120
531.428289 123.924279 2156.657982 141 134 108
489.717913 -30.539501 2145.576286 204 193 158
538.167524 180.656159 2158.192062 255 254 223
23.513219 -251.996589 1944.494247 147 146 116
504.844141 375.647092 2133.512306 231 224 192
532.389021 120.298886 2160.170174 243 235 202
-32.081765 -361.991811 1927.217484 183 177 155
494.965601 392.298126 2129.652786 127 123 97
19.297671 -248.675370 1945.370483 203 202 173
20.108519 -256.067181 1946.612549 174 174 149
524.710464 48.259443 2162.347412 252 245 210
504.882956 2.265661 2155.860710 205 193 164
531.488085 282.374740 2153.347397 170 161 132
531.488085 282.374740 2153.347397 170 161 132
522.516203 307.625079 2148.103142 161 156 130
-89.941317 -401.226854 1906.102943 142 146 121
528.352451 287.195468 2152.663231 171 158 130
-87.564290 -400.439310 1907.416153 142 146 121
-12.176605 -338.395882 1940.135193 155 153 121
-12.176605 -338.395882 1940.135193 155 153 121
501.315546 367.643547 2137.334442 169 160 126
501.315546 367.643547 2137.334442 169 160 126
529.717779 237.830210 2159.140587 194 182 146
521.721792 65.613586 2165.184593 239 226 190
521.722507 299.075651 2153.177452 153 148 123
483.863163 399.901080 2131.949234 136 132 111
524.984026 283.689046 2156.867027 243 232 197
527.805471 207.870698 2162.612534 255 254 227
523.838234 134.138083 2164.755058 184 176 149
520.631075 124.721766 2164.226341 119 111 85
-28.618896 -355.043030 1940.907288 172 170 150
518.020058 302.431393 2154.074287 165 163 131
518.020058 302.431393 2154.074287 165 163 131
525.523567 161.362278 2165.863228 247 240 210
8.656186 -239.529800 1954.004097 149 148 120
519.513941 73.250645 2168.265533 173 165 133
-50.491422 -368.178177 1934.598160 146 144 119
523.880243 159.331894 2167.150497 192 188 166
3.610903 -159.739995 1950.308228 145 145 120
523.619890 253.303170 2162.928963 178 172 144
519.419527 113.272679 2169.077110 254 251 215
471.031666 419.542170 2131.313705 147 141 110
517.960739 146.258831 2167.303848 133 127 102
-17.408386 -326.483178 1953.693962 152 153 130
518.094778 141.984367 2169.368744 236 230 195
5.054994 -272.569609 1961.884499 195 191 161
517.332506 106.208217 2171.225929 250 242 208
-0.009854 -219.177055 1957.052231 150 149 118
503.499746 39.251131 2168.777657 204 196 166
513.576984 295.748782 2160.027122 149 141 107
505.960417 62.462205 2169.288445 241 231 192
-1.188938 -250.876927 1959.842873 185 185 159
488.031578 -4.543505 2166.122818 161 153 121
-0.999826 -286.671686 1963.902664 197 195 171
513.204002 107.182395 2172.283745 161 150 120
-3.079544 -172.694683 1959.457779 173 169 140
497.271681 337.106562 2155.057335 122 120 96
479.512930 379.846883 2146.757126 233 228 191
509.787655 144.925213 2172.895432 151 142 115
493.272400 339.718533 2155.744553 160 152 119
-3.437217 -163.804090 1963.101196 221 214 180
487.708044 2.168372 2171.571159 150 143 116
504.448700 309.553552 2163.302803 248 239 205
509.042549 277.127361 2168.387222 252 246 214
-11.037716 -229.645610 1966.489792 214 208 179
488.359165 351.236343 2155.531693 238 229 193
511.427259 189.653885 2175.403023 238 231 198
505.894136 138.017225 2175.914574 196 188 160
-8.707052 -276.436782 1973.392868 202 196 166
-8.707052 -276.436782 1973.392868 202 196 166
505.143833 274.176049 2170.140266 137 129 105
483.087206 20.374958 2174.665451 248 237 198
497.561693 83.886379 2178.636932 150 137 107
491.064596 331.722450 2162.552071 172 156 119
-10.432944 -141.311932 1968.696594 149 152 127
-10.432944 -141.311932 1968.696594 149 152 127
-21.910596 -194.336569 1968.929291 194 191 164
503.383207 243.596911 2175.248718 255 254 243
491.921997 83.993822 2179.154396 239 226 190
488.539600 315.220070 2165.345573 155 142 104
505.233288 268.468666 2175.180435 209 197 160
480.932760 351.963019 2160.273170 172 164 130
480.932760 351.963019 2160.273170 172 164 130
530.494928 77.526051 2197.025490 247 237 204
485.741186 77.435428 2177.566719 252 241 205
501.777411 238.143158 2175.968170 214 203 167
452.580643 407.891178 2146.083260 138 133 104
495.292091 282.919192 2171.759224 156 154 126
489.278173 67.808133 2180.777550 164 156 126
495.683002 255.161929 2174.151802 252 251 226
449.305630 412.979650 2145.856667 227 218 184
449.305630 412.979650 2145.856667 227 218 184
505.670595 199.739397 2181.925392 255 253 226
505.670595 199.739397 2181.925392 255 253 226
-25.880116 -184.733677 1973.084450 169 164 131
-27.739322 -189.022541 1972.855568 199 196 170
-52.600968 -340.917039 1971.562576 146 146 117
450.827360 -35.878655 2172.823524 172 179 156
478.804398 346.864986 2164.728165 170 161 127
496.036816 264.022017 2176.928329 241 237 202
490.687132 94.920886 2184.399605 173 166 135
497.706699 210.330439 2181.814957 228 214 180
-21.048827 -270.166874 1984.368515 193 190 162
-29.161048 -182.652056 1976.412582 213 207 181
-29.161048 -182.652056 1976.412582 213 207 181
-29.649243 -234.458232 1979.074097 144 143 112
-17.666984 -134.280956 1978.919983 158 156 128
-24.119052 -169.805968 1980.015373 215 210 185
492.607498 278.148079 2178.252220 232 222 192
-26.352260 -143.762171 1981.509590 219 213 180
463.634825 -22.113477 2184.398079 192 187 160
-32.074878 -265.640187 1986.097717 184 183 158
484.403086 298.713589 2176.953506 177 163 128
489.121008 161.598706 2187.497711 201 193 157
479.520369 80.507493 2187.906647 162 152 120
493.360043 196.401393 2188.056183 255 254 248
486.212111 251.827812 2182.473373 235 228 194
454.831934 370.760775 2163.001823 238 228 190
476.444578 83.113360 2187.720871 159 150 119
487.579012 174.163854 2187.816429 255 253 221
-94.696563 -162.559772 1959.066200 171 168 139
437.651634 402.874660 2155.026245 239 230 195
477.839851 291.692376 2178.069115 241 234 201
-38.432869 -286.921620 1990.693474 147 147 116
484.579325 146.374953 2189.716530 157 151 123
450.858450 374.482489 2163.345337 173 164 132
479.991007 240.429020 2184.686470 175 163 130
479.991007 240.429020 2184.686470 175 163 130
-43.604898 -177.152848 1986.463547 209 204 176
478.021860 123.581851 2190.622711 149 144 117
459.509706 -16.259235 2192.654610 204 204 172
479.874563 232.501316 2188.326454 190 176 138
-55.156332 -178.728020 1986.844635 160 158 127
475.856924 134.157550 2192.669487 253 250 218
428.292608 403.752851 2158.828926 220 209 172
464.876842 5.366657 2196.047783 206 194 161
-52.827877 -158.062780 1988.541794 163 160 127
479.725599 181.544542 2193.443108 248 242 207
432.743168 387.709785 2162.821388 154 144 108
432.743168 387.709785 2162.821388 154 144 108
471.962070 151.100850 2192.056274 146 139 111
471.962070 151.100850 2192.056274 146 139 111
471.079922 141.464186 2192.366409 158 151 117
432.797527 391.432023 2163.325882 233 226 182
466.757393 66.479969 2195.990181 181 172 142
472.910643 165.496492 2193.593216 241 237 202
466.570425 304.815221 2183.837128 233 220 182
459.854603 319.681454 2180.273056 195 180 149
422.435236 402.266598 2160.264397 235 226 186
466.371727 282.124662 2185.800552 254 253 227
-54.751313 -138.003504 1992.205811 208 201 173
472.847605 31.407854 2202.606773 161 160 151
463.587093 69.472939 2196.782684 185 174 134
445.844460 356.185627 2173.949051 178 171 143
458.004379 317.766261 2181.125641 181 172 142
-80.037791 -227.601433 1987.543869 172 169 145
468.897533 234.580922 2190.610504 254 250 218
413.562536 416.734028 2158.011436 131 126 101
462.472486 247.313213 2187.748718 179 175 149
415.656900 416.452646 2159.194565 131 126 101
465.541983 187.389457 2192.587090 244 236 202
-73.986477 -178.466940 1989.212990 148 146 114
468.969440 176.949441 2194.896126 236 226 189
461.529684 118.232334 2195.120811 147 144 115
-55.409694 -128.508818 1995.480347 159 155 127
402.527809 420.251179 2157.104301 121 116 91
464.271736 150.563049 2197.945595 243 234 199
455.648279 8.318426 2202.209282 253 250 218
458.906841 277.898264 2189.335632 104 101 76
469.812679 35.399440 2207.846642 178 214 227
458.373022 231.765604 2193.450356 255 251 225
433.575726 354.154229 2176.945877 240 230 194
449.183893 311.118197 2186.030960 234 224 182
456.019354 241.610718 2193.211365 255 254 219
456.019354 241.610718 2193.211365 255 254 219
410.911846 394.717312 2166.800499 222 210 172
410.911846 394.717312 2166.800499 222 210 172
410.911846 394.717312 2166.800499 222 210 172
451.404572 17.651220 2205.100250 254 247 212
457.481909 193.086195 2198.567390 231 226 194
456.037188 186.366618 2198.949623 144 135 104
418.244076 372.594619 2173.566818 231 220 179
448.282528 264.654136 2192.470360 180 169 133
452.847862 198.257387 2199.508286 226 215 175
426.371908 353.964806 2181.221199 185 176 138
426.371908 353.964806 2181.221199 185 176 138
443.778515 264.762378 2193.680000 170 161 128
443.778515 264.762378 2193.680000 170 161 128
440.799141 270.807171 2192.311287 247 240 205
418.372488 -1.049697 2198.289108 205 209 187
430.065489 324.897838 2185.326004 196 190 156
446.180105 200.483775 2199.744225 170 161 127
444.937754 212.236333 2198.687553 169 164 132
394.444942 408.389997 2167.707825 204 200 165
452.793407 25.553411 2212.854385 254 247 212
451.296234 86.064416 2210.409737 189 180 142
426.804256 323.183274 2188.116455 182 175 140
441.766119 205.481410 2200.866890 229 223 186
456.252289 47.861177 2215.541077 172 163 120
418.679619 358.251143 2183.614731 235 223 180
418.679619 358.251143 2183.614731 235 223 180
449.580050 77.996910 2211.653328 195 188 154
429.229784 272.920084 2193.822479 162 153 118
430.661964 288.010359 2194.605827 229 221 182
-327.343416 -372.465372 1928.014374 0 0 0
449.108362 53.160840 2215.280342 178 164 123
390.536666 -13.542946 2195.861626 164 162 138
426.996326 286.006832 2194.441223 228 218 179
417.447567 334.976244 2188.289642 155 144 108
435.499525 207.663488 2203.142166 156 146 110
446.558046 51.743621 2216.502953 198 184 142
419.191837 322.141790 2191.825867 254 247 215
435.329533 229.116488 2203.533745 159 150 115
417.035770 307.642937 2193.331718 244 233 195
431.296968 213.965154 2204.490471 134 124 94
438.229465 142.508435 2211.956978 207 197 163
420.085859 268.567538 2198.274994 251 242 205
372.169638 -23.643105 2195.745277 205 198 168
429.095936 232.689142 2204.572105 246 239 204
406.148243 343.198991 2190.897369 238 228 191
432.637358 43.736893 2217.875671 245 236 202
385.223818 -9.911398 2202.858162 148 147 118
399.336243 341.665363 2190.212631 240 228 189
410.102463 301.106524 2197.605705 166 158 122
432.191324 144.701552 2215.411949 132 126 95
441.232777 112.910914 2220.995140 180 171 135
406.248236 313.375664 2197.778511 239 229 190
408.651543 242.911720 2202.987862 237 225 185
365.867853 397.810864 2177.988434 125 118 85
413.104248 224.410796 2206.035614 122 118 95
408.075523 276.510596 2201.456451 235 227 188
397.363949 298.050666 2198.045349 162 155 120
405.913019 260.681629 2203.712273 251 248 216
418.617916 160.719252 2214.269447 207 201 162
364.563799 392.073011 2181.154823 220 210 169
364.563799 392.073011 2181.154823 220 210 169
393.903017 331.102991 2196.937561 241 233 195
370.959926 352.639985 2189.712715 244 232 195
367.795730 372.293735 2187.785721 238 227 188
436.533833 111.675251 2229.159737 114 99 76
355.801535 387.442565 2183.103371 137 130 104
395.276666 284.938407 2204.122543 233 225 190
387.358379 297.648644 2200.848579 224 211 172
397.214842 216.931987 2209.091377 147 139 109
397.214842 216.931987 2209.091377 147 139 109
404.906511 27.072081 2222.918510 249 240 202
354.710841 384.074283 2184.400558 189 186 153
395.633078 245.923328 2208.358002 170 163 132
373.309255 343.266106 2194.907188 172 162 130
430.139494 82.704699 2231.316566 102 94 72
384.654355 271.778703 2204.772568 122 114 84
360.017490 374.335814 2190.040207 231 222 188
379.736233 297.484446 2202.054405 166 158 125
379.736233 297.484446 2202.054405 166 158 125
385.151625 248.495317 2208.422089 131 121 91
425.428104 82.329792 2233.411980 108 95 76
349.947929 -7.406389 2211.103249 253 251 220
401.341581 168.144500 2220.923042 205 194 154
377.021313 279.094243 2206.017113 162 150 113
377.021313 279.094243 2206.017113 162 150 113
384.999847 232.788563 2212.073898 245 238 208
360.469699 325.742769 2198.040771 142 136 103
381.558895 236.794281 2211.221313 246 237 203
343.594480 377.731347 2189.488220 150 145 108
353.350186 358.197832 2194.615173 118 112 78
322.664881 415.676498 2180.177116 203 199 163
373.851943 289.433932 2206.690979 249 243 205
354.145098 4.499622 2215.424728 250 245 213
378.932691 246.954846 2211.475182 163 159 124
335.772276 381.761074 2188.570786 221 209 172
421.219063 134.074664 2234.727287 209 199 161
367.293048 296.756721 2206.072426 170 157 120
355.348110 338.638282 2199.649620 234 221 177
363.658381 300.307369 2204.918861 177 163 128
349.446440 344.435239 2197.285080 179 171 141
352.335453 325.535226 2199.845886 248 244 208
354.341793 329.619837 2201.968765 232 223 187
352.980161 307.397914 2203.666306 159 148 108
406.396055 147.639048 2232.589531 189 183 142
343.716860 321.115756 2199.709892 177 175 147
310.248590 416.988182 2181.944847 136 131 107
345.711446 331.579113 2200.423813 248 240 208
363.925838 246.031427 2213.313866 229 219 182
358.070493 243.518662 2211.327362 230 218 180
311.395621 408.573627 2185.492134 226 214 173
332.386470 344.976568 2196.973991 235 224 184
415.715456 131.730473 2239.894295 238 232 196
306.679797 416.397047 2183.639526 146 139 108
332.310891 325.017786 2200.434303 228 220 182
332.310891 325.017786 2200.434303 228 220 182
351.917076 267.425418 2210.983086 219 210 173
351.917076 267.425418 2210.983086 219 210 173
326.638198 341.403508 2197.544098 164 155 117
378.775358 74.834579 2231.802559 158 157 130
305.465746 407.520056 2186.433411 235 222 187
318.716407 370.978546 2194.294739 229 219 180
353.446817 259.935284 2213.365746 241 233 196
318.453455 374.233818 2194.453239 222 210 172
377.098417 37.398407 2235.055542 254 249 219
326.342750 331.282067 2200.018311 168 160 128
382.575846 187.997317 2228.955841 229 216 177
359.896874 225.381207 2218.682098 166 157 123
361.506557 221.793723 2219.871330 168 159 123
342.276049 286.209106 2209.717560 164 158 124
406.227112 104.108572 2243.363762 177 173 140
305.471849 -0.690125 2212.136650 211 212 194
327.585363 316.807938 2203.029251 227 216 180
391.652250 155.992174 2236.255836 213 201 161
372.888803 45.535415 2235.524559 245 239 206
348.047948 248.279476 2215.216064 175 165 136
343.679881 251.664996 2214.579964 231 218 176
328.085589 302.468538 2206.187630 135 124 88
301.808834 387.251043 2192.037964 203 192 156
286.799097 422.304010 2184.830475 104 106 113
379.065847 178.169167 2233.770943 235 225 187
400.273180 106.992388 2245.746231 254 251 218
311.937737 325.244260 2201.437950 220 212 177
411.196613 116.624451 2250.263214 244 235 201
328.476286 264.544129 2212.890434 233 223 183
304.041934 327.579737 2200.987816 158 155 119
312.855840 309.409547 2205.617332 171 162 128
312.855840 309.409547 2205.617332 171 162 128
290.040731 -7.582020 2215.280342 90 101 101
317.292333 290.781474 2209.048271 240 231 197
317.292333 290.781474 2209.048271 240 231 197
287.510228 352.885556 2195.239067 240 231 193
285.697007 380.669117 2193.981171 215 204 177
306.836152 308.807063 2206.217766 242 235 199
318.639112 271.034193 2213.031960 179 171 135
329.009318 34.674093 2230.539894 221 212 194
288.062382 363.512635 2197.874069 243 232 200
311.864471 283.580422 2211.288643 223 215 178
284.743810 368.605566 2196.841431 233 224 190
314.537668 27.723435 2228.049278 197 191 189
300.782275 293.248868 2209.136200 126 120 92
317.175627 247.569394 2217.984962 209 200 168
285.015225 13.697621 2219.513893 195 196 169
374.999356 137.249553 2245.559883 155 155 128
331.227732 46.181327 2235.009003 199 192 186
326.570630 40.384722 2233.791924 137 128 125
326.570630 40.384722 2233.791924 137 128 125
362.341905 194.187045 2238.016129 135 130 98
253.772473 354.599619 2190.489578 108 101 121
302.661657 283.290768 2212.273407 161 152 116
295.471931 289.110804 2209.916878 217 209 172
310.869312 243.662024 2220.181084 192 189 157
336.103415 74.463665 2239.072990 208 204 171
282.588744 297.104812 2208.573532 222 215 174
226.900172 339.475965 2187.349701 140 133 103
327.944303 223.455215 2229.842949 147 140 105
361.541724 125.397050 2248.181915 233 220 183
358.709455 146.708655 2246.175385 155 152 127
331.856775 67.549175 2242.245483 114 107 105
341.875172 209.974456 2238.035965 204 197 158
291.247177 250.751591 2218.158531 134 128 95
312.216592 41.185656 2237.703705 127 118 117
236.887360 319.922566 2195.573807 141 133 97
351.445246 173.265743 2244.596100 237 232 197
337.181592 85.238707 2244.800186 233 226 188
312.171698 45.340994 2238.714790 196 190 183
222.107077 326.052833 2191.426659 214 206 167
222.107077 326.052833 2191.426659 214 206 167
352.183366 106.610727 2249.849319 208 204 173
352.183366 106.610727 2249.849319 208 204 173
282.015681 253.063607 2217.440987 139 135 105
324.005032 65.055680 2243.369293 195 187 187
351.486897 175.891352 2247.471428 143 137 104
276.447439 260.025907 2217.203903 142 133 94
248.380423 20.788330 2220.949554 172 169 138
215.303445 323.154235 2192.616844 214 204 165
350.573158 126.114833 2252.090645 186 178 143
345.696163 109.060824 2253.230095 252 248 209
345.696163 109.060824 2253.230095 252 248 209
277.897215 244.358253 2222.354317 212 201 156
298.593283 45.330584 2241.550446 214 211 205
338.566399 186.730170 2249.322891 234 230 198
336.830449 192.867279 2249.560165 190 186 151
262.569833 253.777766 2220.573616 222 210 170
332.526422 176.003432 2250.119781 231 225 194
287.403846 50.277042 2243.275833 203 197 188
332.181954 158.138561 2252.608681 248 245 215
332.181954 158.138561 2252.608681 248 245 215
333.493567 172.879064 2252.279663 235 232 196
286.968875 60.842115 2242.755699 133 127 123
326.347613 180.972970 2250.322342 99 97 65
326.347613 180.972970 2250.322342 99 97 65
205.858397 370.717764 2199.281502 148 151 172
277.445340 228.664660 2233.459091 214 200 160
316.750288 197.120273 2249.445915 186 186 159
285.207725 96.583784 2246.156883 215 212 181
290.628386 80.907935 2250.169754 240 232 205
270.198464 60.593075 2245.359230 119 109 102
270.198464 60.593075 2245.359230 119 109 102
266.224957 230.615854 2235.099602 209 200 157
193.202460 380.655003 2204.017067 147 149 175
277.149224 146.204579 2245.580292 165 164 128
282.288146 115.428865 2252.844429 169 162 136
-14.471795 377.804041 2139.904404 107 101 114
264.175344 150.882375 2247.694397 166 169 141
272.249818 203.823924 2247.772408 152 149 142
264.503026 155.000424 2248.428917 81 76 49
253.067565 93.728292 2248.174858 109 103 75
268.179107 192.374289 2249.445534 219 212 199
247.532415 91.839957 2248.736191 206 204 184
233.162141 391.268039 2236.294556 90 99 110
233.162141 391.268039 2236.294556 90 99 110
247.574806 142.265737 2255.192184 213 206 168
233.499002 153.642678 2250.332642 178 173 138
33.296329 356.050563 2174.778748 0 0 0
57.977325 390.359831 2188.546944 105 102 120
124.401879 452.715445 2234.510422 255 254 0
779.735279 87.329870 1956.668282 0 0 0
617.324066 132.741904 1782.173538 0 0 0
494.169283 -128.576553 1684.447098 214 199 153
505.488014 -126.132977 1697.315788 214 199 153
596.473837 266.440558 1799.207306 133 120 59
633.036852 148.126245 1845.443726 118 105 52
728.975868 -50.291634 1946.916962 85 69 20
637.900972 131.490314 1858.300209 75 60 15
630.910063 166.865396 1850.779533 105 88 21
600.790119 305.371761 1817.973900 99 83 19
632.112789 182.463932 1853.376770 183 170 128
733.816910 -85.274237 1960.107994 214 199 153
637.797976 127.780354 1866.352654 154 147 109
637.332869 142.378509 1867.170906 166 153 115
727.181864 -54.077840 1961.279488 91 75 25
633.430958 195.709264 1864.778709 188 184 145
634.865141 187.032020 1868.039131 174 167 124
731.271505 -65.899074 1969.259453 176 158 105
616.111708 287.296486 1848.011017 153 140 88
607.286072 309.793711 1843.678856 139 130 80
630.974340 233.682084 1869.514465 191 182 140
641.787910 111.549628 1886.050415 73 60 14
638.904428 122.390664 1883.604240 76 63 22
638.904428 122.390664 1883.604240 76 63 22
638.737154 142.459571 1883.697319 128 119 78
641.025782 109.172380 1891.888428 133 124 80
605.256128 321.047044 1850.329018 122 111 66
638.314581 187.270784 1890.303802 189 180 140
639.489269 187.159872 1891.603470 189 180 140
644.308853 123.120499 1902.067947 149 143 102
620.104265 291.315365 1873.792267 141 126 71
598.212385 342.566824 1856.373024 126 116 68
634.914255 178.168535 1896.873665 196 185 146
641.379738 142.291272 1906.152344 184 177 143
630.020666 261.593819 1892.708969 195 184 139
630.020666 261.593819 1892.708969 195 184 139
632.865477 250.152636 1897.730827 79 72 31
587.066555 366.606140 1853.366470 136 124 74
639.839888 196.483231 1911.938477 190 176 136
632.007408 240.547013 1903.228951 86 73 32
633.424377 235.680270 1907.177353 169 156 107
633.424377 235.680270 1907.177353 169 156 107
643.640327 153.619623 1920.444679 57 42 12
643.640327 153.619623 1920.444679 57 42 12
601.386166 349.543977 1875.481415 78 66 15
634.470749 230.947208 1910.881615 93 80 30
596.953869 356.936598 1872.117805 135 127 86
640.003920 163.975930 1922.406387 154 145 102
642.694426 108.190596 1927.964973 105 96 54
641.030788 192.985833 1922.698402 89 81 37
637.205935 224.916959 1919.650459 164 149 101
644.594717 85.691649 1932.979774 145 134 98
624.438524 307.948661 1905.400085 154 143 99
640.502310 175.547886 1927.614594 171 156 116
643.476439 145.973277 1933.201981 84 70 32
638.137817 188.323343 1928.123474 79 72 32
643.800068 95.009273 1937.533951 110 101 66
634.686327 245.019674 1923.719025 218 208 176
640.804386 117.437124 1936.094284 79 66 22
642.264509 114.214873 1939.150047 167 156 121
639.812946 191.956389 1933.468056 168 159 115
641.430902 173.514128 1937.316704 184 170 125
579.780674 399.238896 1874.683571 122 109 64
722.788620 -55.550474 2019.760704 203 190 142
694.225645 -95.593762 1997.112465 233 220 181
637.827969 163.088036 1939.260292 182 168 128
598.319817 365.704012 1895.953941 134 123 81
629.537535 253.571343 1933.699226 73 61 27
642.032290 184.621191 1948.100853 187 173 132
633.680677 238.131762 1942.508507 128 114 65
633.680677 238.131762 1942.508507 128 114 65
627.605772 281.024313 1935.690117 99 88 51
597.353840 370.869446 1907.232666 74 62 28
711.902857 -81.033444 2027.202988 181 169 137
637.080622 223.054886 1949.685097 198 185 138
625.858355 303.410125 1939.720345 154 135 83
629.482651 266.270447 1945.545387 201 188 152
613.931847 329.785776 1930.712700 92 84 41
636.483002 165.847969 1957.839394 106 94 61
630.373907 265.215945 1950.755310 103 93 62
626.916218 256.554532 1950.737190 119 108 76
627.429581 266.035461 1951.793098 102 91 56
713.147640 -45.230013 2038.427925 199 183 141
638.052034 171.989357 1966.631508 137 125 96
601.681519 362.853479 1927.857208 96 86 45
637.325096 151.570225 1969.551468 201 190 155
652.310181 56.200218 1988.062096 142 133 93
668.834972 34.447330 2004.484558 76 65 31
678.913784 29.109782 2013.991356 129 115 71
638.311386 142.598653 1977.303314 207 199 161
637.819481 156.846488 1976.996994 122 113 78
634.513140 211.118627 1972.796059 168 161 127
574.561834 405.874062 1915.612984 101 89 57
650.061846 56.520760 1994.926453 138 126 86
635.648632 124.699152 1981.241989 100 93 58
635.648632 124.699152 1981.241989 100 93 58
638.915300 100.026274 1985.382652 97 88 53
696.881533 -31.134892 2040.565109 193 179 136
631.490517 235.439873 1974.201775 99 87 49
637.567759 152.106202 1983.694839 210 202 165
577.039385 408.350706 1923.893356 133 125 83
658.960438 38.893560 2009.034729 134 124 84
619.415331 304.278135 1964.564896 93 85 44
632.617950 193.545914 1981.575203 205 194 156
614.222002 327.662802 1960.345268 142 134 100
632.633781 145.279181 1986.073494 110 96 62
655.329275 46.831816 2010.433578 134 123 78
635.405779 88.099259 1992.711830 161 150 111
635.405779 88.099259 1992.711830 161 150 111
633.196163 200.279737 1986.054993 226 215 173
634.220171 184.523559 1988.522530 189 176 130
633.104324 209.671974 1987.224770 216 207 173
633.104324 209.671974 1987.224770 216 207 173
633.210993 111.099637 1995.190239 173 167 136
631.938028 137.353873 1995.717812 143 133 104
640.339088 64.081430 2009.998131 86 79 43
631.612635 111.853576 2003.291321 117 109 76
631.472921 192.604828 1999.476814 214 203 163
623.845625 282.463646 1991.451836 113 98 62
602.694559 349.234009 1972.052956 94 85 47
631.430769 139.057362 2007.835770 209 201 173
622.630310 268.376064 1994.729996 85 74 29
639.885283 75.187820 2018.120384 197 192 157
620.837975 276.192951 1994.571495 103 94 61
680.423403 -80.862719 2060.498428 237 225 185
631.424522 96.790916 2013.314247 96 86 48
671.615791 9.959151 2049.759674 123 108 61
671.615791 9.959151 2049.759674 123 108 61
671.615791 9.959151 2049.759674 123 108 61
604.690742 339.519930 1981.937981 169 156 115
625.776958 214.834142 2004.892731 121 109 79
629.527473 217.850947 2007.740784 104 99 76
606.545401 334.294534 1984.429169 95 91 59
622.106838 273.953676 2000.839615 156 142 100
625.429201 205.071545 2009.184074 220 205 162
627.189875 177.186406 2012.930870 181 165 129
613.815069 297.209430 1996.820831 186 183 158
646.006918 45.394325 2034.595299 90 77 39
678.807163 -76.583111 2066.640091 249 238 200
617.830420 284.277964 2003.217316 162 160 134
625.551176 151.938915 2015.776062 165 154 121
626.761627 152.012968 2016.955376 165 154 121
629.128361 105.332303 2022.301865 121 108 70
626.080227 215.205574 2014.883995 211 200 161
624.257278 128.312337 2018.467903 87 77 43
624.146414 256.428099 2012.607002 93 82 51
618.671179 261.265397 2008.086967 167 159 127
641.315460 54.886574 2036.592293 161 151 101
626.503658 189.603078 2018.960571 220 207 166
634.870291 72.200567 2034.225082 197 187 153
639.031982 60.590863 2040.551758 165 151 104
608.060455 313.074183 2004.196548 113 105 79
625.741434 163.350272 2025.989914 219 205 164
676.018953 -2.632428 2073.583794 96 81 41
651.563692 27.112451 2053.356552 79 65 30
624.209595 182.931221 2025.110054 201 187 150
621.753836 237.892652 2020.772171 105 93 53
675.569773 -64.514768 2077.714920 220 210 178
595.942402 352.840328 1996.217728 178 171 138
622.799921 209.904289 2024.984360 167 156 125
623.177290 152.422249 2028.433037 216 205 169
608.381224 315.507221 2009.182549 156 154 132
592.413616 364.573383 1995.638657 106 102 73
622.398424 173.600709 2030.375671 243 235 204
602.584839 327.737117 2009.119225 86 85 65
618.735647 153.235400 2033.644676 137 123 94
621.124697 198.134649 2034.358788 174 168 138
605.649519 313.427377 2017.173195 95 88 55
606.707478 306.164050 2020.191193 174 167 127
619.658184 107.675433 2040.603256 141 137 109
636.488104 52.023494 2056.968880 186 178 139
605.868530 302.890682 2025.568771 200 188 154
616.931581 165.550232 2040.939140 143 132 97
611.250782 273.951602 2031.641769 163 158 132
621.803141 104.276502 2048.828125 186 177 139
612.625074 266.156006 2034.109497 120 114 84
578.605556 388.037539 2002.340126 159 152 121
619.455624 200.780082 2043.062019 83 68 31
576.011324 392.469907 2002.646255 120 111 81
576.011324 392.469907 2002.646255 120 111 81
576.011324 392.469907 2002.646255 120 111 81
617.877483 177.943039 2046.345711 114 97 65
617.877483 177.943039 2046.345711 114 97 65
591.704512 356.910038 2019.737434 184 171 135
616.498423 208.172512 2046.329880 158 148 119
575.893116 374.308991 2009.121704 174 162 123
575.893116 374.308991 2009.121704 174 162 123
571.635103 399.589968 2006.434059 165 156 118
604.559851 285.201192 2037.461090 178 165 122
590.702724 341.519117 2024.674988 183 170 133
611.056042 263.536763 2043.887138 110 97 58
612.876701 183.567190 2051.068687 162 152 118
595.847988 323.567748 2033.003998 102 94 62
621.812296 80.523396 2065.075874 111 96 69
659.246826 -42.024115 2102.467537 255 254 228
609.507704 167.715621 2055.843925 220 208 172
630.304956 37.441251 2080.165863 216 208 170
604.124403 270.084357 2050.908852 195 189 158
594.972563 321.653819 2042.151070 167 159 128
618.788910 67.121196 2075.724602 211 198 158
606.293964 151.629055 2063.081932 158 148 118
608.123684 116.324937 2066.607285 141 125 99
566.468239 397.302508 2022.821617 177 167 130
594.504404 312.074184 2048.577690 184 175 137
604.140472 265.677881 2058.067894 113 104 70
598.611116 291.408563 2053.028488 139 126 93
552.757549 416.612387 2013.326645 151 141 107
605.723381 123.396730 2068.522644 223 213 178
604.396629 218.541527 2063.354492 108 99 73
607.132387 127.387869 2070.490646 161 151 124
618.514109 52.167088 2083.957672 195 177 134
621.911478 46.783444 2086.842728 222 210 168
602.167463 260.894442 2063.749313 230 220 184
582.201481 351.924253 2045.075607 173 168 137
608.365870 84.765929 2078.605270 123 115 80
608.365870 84.765929 2078.605270 123 115 80
607.924461 216.555834 2071.657181 214 201 164
639.106464 13.394992 2104.660034 220 207 167
606.397152 234.065342 2070.842552 91 79 45
622.696829 41.058284 2093.460655 120 110 82
603.662729 167.468023 2073.573494 132 121 87
599.621964 262.168288 2067.374802 138 130 97
597.552919 274.807715 2066.829300 225 217 179
547.823191 418.724728 2023.975182 146 140 107
577.711916 363.608527 2049.267769 165 165 141
616.553688 45.891696 2094.134140 178 170 132
578.363180 346.656990 2053.053093 97 91 61
601.244020 157.888043 2079.416656 172 160 128
592.467546 292.319345 2066.484070 134 127 93
601.618290 149.151504 2080.425644 166 156 123
583.016253 336.792970 2057.699013 175 174 145
554.368162 403.870821 2033.876610 193 181 141
632.093859 10.975754 2109.926796 249 237 201
601.207304 92.953491 2083.856392 228 217 179
612.091303 44.519162 2094.434738 97 86 57
628.123999 -39.252540 2110.929680 255 247 214
604.891872 204.585648 2081.956863 246 237 202
604.891872 204.585648 2081.956863 246 237 202
599.634266 237.838149 2076.791382 226 216 175
571.250677 367.011714 2051.309013 92 87 65
598.076725 243.617797 2077.955818 231 220 185
584.375334 319.054127 2066.906357 177 169 135
596.249771 156.173456 2085.095024 177 158 122
583.615732 315.450120 2068.975258 183 176 140
540.887928 421.065760 2033.180618 100 90 58
600.923204 79.434645 2094.858932 129 115 78
581.050301 318.585300 2068.925858 182 174 141
609.975529 -43.617478 2109.800911 244 234 198
595.904684 229.076338 2086.117172 233 226 194
581.401730 323.463559 2071.078300 103 96 66
581.401730 323.463559 2071.078300 103 96 66
569.323826 346.341419 2063.525009 102 98 74
561.621284 382.838607 2056.351471 176 167 131
594.088984 239.866567 2086.641312 151 138 109
572.924900 353.307724 2066.475677 202 193 161
572.924900 353.307724 2066.475677 202 193 161
596.556234 93.243313 2096.965218 85 70 44
620.610666 -28.209931 2120.618057 184 180 159
601.674414 64.382875 2102.976799 160 140 101
594.081306 234.006214 2088.986778 144 135 108
592.271996 117.995608 2093.819046 224 220 187
594.149828 199.526143 2093.290901 180 170 138
583.997583 294.159913 2081.758499 198 188 152
593.308401 222.161150 2092.023087 235 226 191
615.847588 -29.181638 2121.114731 252 243 207
591.796541 260.010719 2090.053177 109 99 67
593.517065 260.032535 2091.558838 109 99 67
581.175518 301.878023 2081.146622 180 174 147
590.226841 136.102974 2096.075821 233 223 191
600.712442 69.731563 2107.405663 168 150 111
597.968817 57.745022 2106.815147 218 204 163
591.927910 229.134512 2095.225525 157 149 118
591.927910 229.134512 2095.225525 157 149 118
552.325964 378.311467 2061.020279 192 181 146
606.736851 37.307549 2116.684532 232 220 180
595.104694 71.611339 2107.067490 241 227 189
591.258097 218.244529 2096.971893 230 221 182
570.468235 317.351151 2079.735184 106 110 95
64.080173 -310.240221 1759.144211 80 65 7
604.569769 34.077361 2118.339348 122 111 82
537.204742 414.331293 2051.991463 182 174 137
555.792332 383.009577 2067.360306 193 185 151
586.633158 106.470942 2103.281593 132 125 101
592.597198 71.503371 2109.860611 147 131 93
587.510538 82.407731 2106.068611 220 212 175
572.749901 307.577610 2085.650635 191 181 146
583.992290 110.811090 2103.741264 188 180 148
584.562254 161.815798 2101.572418 235 225 189
584.511614 136.730409 2103.283310 140 132 105
586.131144 239.683461 2099.929237 255 249 222
586.249256 225.809145 2102.052116 222 212 175
524.328995 429.586506 2049.453163 182 176 150
583.259869 268.066978 2099.363899 216 206 163
598.612309 -24.696362 2125.377464 201 193 163
593.532085 59.149712 2118.101311 228 216 176
533.769846 410.870361 2059.281349 99 98 71
350.202107 -102.238286 1960.301018 99 100 96
71.148002 -311.464000 1779.252434 87 80 30
586.585760 93.152171 2113.167572 214 208 176
348.519564 -105.428267 1960.786057 16 2 0
580.085850 270.525026 2100.980186 216 206 172
73.647708 -343.036842 1786.837006 60 52 5
73.211145 -319.562197 1787.526512 140 133 98
74.664378 -319.948912 1792.967033 96 89 47
579.409170 105.967546 2115.394592 216 203 167
585.874557 65.648055 2122.833443 226 215 177
577.386713 111.195076 2114.879608 124 115 84
578.940153 181.170881 2115.608406 163 154 134
576.500702 104.208887 2118.074608 188 177 148
581.839800 205.255961 2116.620445 255 254 225
581.839800 205.255961 2116.620445 255 254 225
577.922678 263.607335 2113.145828 97 88 62
573.241663 128.332078 2117.024422 177 168 141
582.941675 -17.431150 2132.014275 239 233 202
582.941675 -17.431150 2132.014275 239 233 202
559.165716 335.659504 2097.860527 105 95 70
562.590790 315.390229 2101.288986 123 115 86
516.157532 430.440283 2064.318466 181 177 145
69.769293 -282.708097 1800.208855 90 77 28
569.529200 282.116985 2108.620071 166 154 117
561.205673 325.444889 2100.976372 101 93 68
571.615887 132.861316 2118.740463 244 235 195
571.446466 272.721052 2111.766052 163 155 125
571.446466 272.721052 2111.766052 163 155 125
575.160122 204.794502 2117.980957 185 176 147
526.107454 414.024782 2074.140549 217 211 174
571.859217 192.665362 2116.431427 212 206 175
573.877859 84.508038 2124.437904 119 107 82
573.877859 84.508038 2124.437904 119 107 82
582.004166 13.010076 2134.949303 175 168 138
572.565317 234.992981 2117.165565 229 219 186
570.700932 136.773872 2121.570206 196 184 152
556.697702 334.468126 2102.132034 149 142 112
562.091208 305.213141 2108.918571 145 143 120
570.947266 101.374805 2126.807976 216 207 166
570.947266 101.374805 2126.807976 216 207 166
564.953184 298.088050 2113.111496 188 185 154
573.728561 8.925138 2135.033226 160 152 122
573.862457 -7.163440 2136.559105 178 176 171
561.775064 304.391313 2112.363243 187 177 143
571.109629 220.057511 2123.322678 162 154 130
577.294254 32.354012 2137.796021 183 171 140
547.085953 355.548835 2101.419067 231 223 183
570.380068 253.094244 2122.607613 239 229 193
548.176384 348.474455 2102.988243 212 200 161
526.785088 394.309688 2087.307549 199 189 153
568.248987 97.458941 2131.114006 152 144 115
566.513586 184.080350 2126.053810 173 163 131
565.167284 270.335126 2120.697403 103 92 67
569.338560 1.174254 2138.781929 177 172 144
540.647554 359.476542 2101.182938 217 203 163
558.907747 282.729506 2117.823029 86 88 76
570.678854 17.605385 2139.942169 249 243 209
545.043564 346.482801 2106.416321 219 205 170
561.826801 148.242354 2130.065155 239 226 191
564.332247 124.656761 2133.014297 155 142 113
549.308062 319.555044 2116.836357 151 144 114
541.142702 351.139164 2110.160255 233 224 189
561.776543 178.653669 2133.026695 255 249 216
559.332085 132.167864 2134.138870 149 135 102
559.649086 7.730626 2142.443085 194 189 158
534.905529 369.498134 2107.492447 173 166 143
546.651649 322.575593 2119.195366 148 135 95
520.227575 401.556921 2098.422050 215 207 171
540.613270 342.489362 2115.811920 185 176 145
550.937366 295.574737 2125.279045 148 134 103
539.227676 348.299623 2115.676117 218 209 168
549.397469 7.191239 2140.940094 248 237 205
557.272673 85.198826 2142.695236 238 228 194
450.813580 -60.834336 2084.140968 184 205 194
527.526522 368.145299 2112.758255 239 229 191
532.968426 351.227236 2118.346214 140 134 104
516.144419 391.458035 2106.571007 207 197 161
553.197908 25.375351 2149.977303 185 175 148
525.835943 366.724563 2116.295433 120 108 81
74.407583 -277.317810 1860.961342 106 108 80
531.528902 353.078628 2122.715187 218 210 174
534.118605 352.710772 2124.813271 218 210 174
73.864818 -311.910892 1864.793587 140 136 108
551.034212 235.425830 2143.070602 142 133 100
550.789976 62.110639 2152.651596 192 183 151
548.832989 208.046532 2144.524765 140 126 98
548.626184 65.554124 2153.509903 251 246 212
544.136381 281.897593 2139.261818 156 150 125
544.772577 269.255042 2140.910912 152 146 122
68.815279 -337.629914 1869.781876 190 190 167
524.558592 351.083112 2125.506020 213 205 173
539.878273 304.857898 2137.858582 146 142 106
330.759501 -107.347751 2028.213501 42 46 45
529.537058 333.766437 2131.502342 233 222 191
440.435696 -62.106770 2096.070480 206 226 210
540.389442 36.797744 2154.605103 198 184 153
536.935377 23.310463 2153.314781 253 245 210
65.012836 -300.376105 1871.556282 181 179 154
533.179760 14.241502 2152.510834 247 236 201
534.618187 308.181477 2138.272095 224 211 172
539.340448 285.405374 2142.811584 178 170 141
538.735294 40.951464 2156.524086 196 181 148
425.744677 -45.279559 2089.970207 218 204 169
58.826196 -356.057143 1876.171684 204 202 179
540.169573 139.181590 2153.936768 197 188 156
539.004707 111.507940 2155.382347 248 237 195
526.700735 333.598852 2136.334419 241 230 193
532.628345 35.335916 2156.751442 254 248 216
495.004368 415.029907 2113.828659 202 191 152
525.808573 20.581327 2155.248833 252 242 208
499.023724 384.231043 2120.423126 219 209 170
527.406311 39.675292 2158.841133 185 176 144
522.378874 28.399381 2158.849716 194 188 159
522.378874 28.399381 2158.849716 194 188 159
465.795755 442.470694 2102.064896 246 245 211
58.687174 -328.775144 1890.119362 213 212 186
529.786921 74.828643 2161.864090 251 240 205
528.765440 152.759314 2157.474899 136 132 105
48.824686 -360.855460 1887.579346 152 146 118
48.824686 -360.855460 1887.579346 152 146 118
528.934050 282.708359 2151.744461 168 156 124
529.103708 100.321531 2162.251091 166 154 125
532.618284 289.263821 2154.743767 226 215 180
527.034616 110.380697 2162.716866 243 231 192
511.357594 345.101452 2141.754341 161 152 122
58.091646 -305.806541 1897.015381 153 153 124
523.964453 296.547747 2153.140450 225 216 178
509.237766 349.895716 2141.287231 167 154 120
528.654718 160.761857 2164.260483 183 179 154
518.254662 65.267617 2163.068390 239 226 193
526.733589 99.474442 2167.741776 199 191 166
522.099209 72.602832 2166.681480 247 237 199
51.453769 -301.634216 1898.057365 202 199 172
525.455523 266.136312 2159.881401 243 239 204
520.693636 85.505390 2166.676140 252 244 213
520.693636 85.505390 2166.676140 252 244 213
55.870891 -259.618115 1900.509453 142 140 109
516.474771 302.660608 2153.113556 159 157 128
41.160780 -354.004264 1896.986580 209 207 183
9.252184 -417.103815 1883.107567 153 152 121
518.517208 113.246524 2168.528366 254 250 210
49.967337 -318.353724 1906.053734 165 164 133
519.372892 146.252239 2168.164444 126 122 96
520.818806 255.850744 2163.184547 241 235 198
52.225685 -266.818142 1905.847549 134 135 109
493.493748 0.778415 2162.174797 245 234 198
476.162910 411.796236 2130.364037 143 133 110
514.293098 151.798689 2168.496323 203 197 166
511.451960 69.896781 2171.342468 249 243 203
479.947472 400.924921 2134.500313 210 202 164
516.109657 287.795639 2162.754059 225 215 184
513.749647 148.464620 2169.440651 125 118 92
517.037010 155.976486 2171.727371 250 241 208
291.353297 -87.840325 2050.039673 5 5 20
47.915497 -254.004598 1912.415123 208 206 182
50.042415 -270.407295 1914.733505 150 147 119
41.548586 -276.473212 1910.084915 189 190 162
511.989164 138.494587 2171.725273 253 246 212
511.989164 138.494587 2171.725273 253 246 212
495.358658 347.970796 2151.606750 246 237 208
508.237886 95.541060 2173.819923 208 194 163
22.726236 -340.345502 1907.955170 190 192 165
506.835890 103.919768 2174.955368 192 184 153
479.329824 387.616420 2143.380356 210 204 175
515.447140 152.539933 2177.700043 192 185 158
509.483337 272.867656 2167.783356 253 246 216
493.597507 339.612341 2155.945587 154 149 112
35.710523 -264.630342 1914.921761 141 140 109
42.213637 -286.020136 1920.484734 199 196 168
290.702081 -82.541198 2058.364677 14 18 45
487.050724 2.092608 2171.319199 132 123 93
504.857302 292.586637 2166.441917 222 210 175
33.618665 -174.258137 1910.554695 126 119 89
39.720330 -247.348952 1918.203354 138 138 107
39.720330 -247.348952 1918.203354 138 138 107
472.633886 -33.664253 2165.509796 215 202 169
466.745996 400.106668 2138.851547 222 212 173
497.684813 59.745294 2175.738335 142 132 99
509.829187 222.166657 2175.404167 255 252 219
477.699137 376.432896 2148.345375 172 164 133
481.291437 -17.385754 2171.821213 183 172 143
26.214629 -330.912852 1917.688560 146 147 121
501.259375 87.733561 2178.387070 237 226 193
36.231574 -214.625001 1918.260765 122 118 89
31.222731 -195.669818 1915.453720 124 124 100
28.147924 -321.955633 1920.533562 195 196 171
507.007504 172.639310 2180.747795 255 255 230
482.421064 7.022770 2177.182007 199 194 161
503.313112 165.805614 2181.154060 253 251 223
498.685980 159.210229 2179.111862 180 168 139
486.256647 332.198930 2163.218498 245 231 193
472.587872 370.979166 2153.612900 156 143 110
478.516054 352.265120 2158.834267 169 159 126
483.782864 339.773870 2162.806511 170 156 121
492.421436 93.348145 2182.181358 229 216 179
495.046329 92.986786 2184.144783 229 216 179
492.342377 107.414138 2182.229042 167 153 122
492.721558 253.748059 2175.466728 232 225 194
493.333769 302.565932 2175.439072 235 224 191
493.333769 302.565932 2175.439072 235 224 191
21.082939 -163.985968 1924.202538 122 121 97
480.511951 346.796584 2165.728760 170 163 128
-9.615450 -359.465742 1917.202568 147 149 128
477.300882 352.624130 2163.852692 225 216 178
491.834164 274.762797 2176.753426 247 238 206
30.935323 -261.622524 1936.381912 207 203 174
28.434968 -207.376790 1932.479095 202 195 169
461.183310 380.537391 2154.117775 225 213 176
494.034624 167.909133 2184.867477 178 165 133
485.837603 75.480199 2185.575294 251 243 206
17.419435 -314.810848 1934.291840 191 191 167
475.870419 7.785121 2184.803963 240 229 191
489.113951 289.526963 2177.443886 207 200 175
25.445855 -231.471777 1936.242676 208 208 181
486.851835 132.672858 2185.708427 188 177 141
486.580467 137.685263 2186.135864 174 167 133
487.910175 176.413548 2185.443878 247 236 202
481.606674 129.962516 2186.631393 249 239 208
-57.852870 -406.055498 1903.732872 172 174 154
24.884179 -212.017798 1941.480064 210 205 172
485.075378 154.392850 2189.667892 240 234 199
12.599412 -141.864836 1933.197021 128 130 104
486.576033 131.792879 2193.282890 246 237 205
463.784456 351.248884 2168.371964 245 239 200
19.510826 -256.173539 1946.274757 178 176 150
479.612255 240.519476 2184.462547 185 171 141
475.427055 89.141071 2190.447807 128 119 95
478.944874 123.635316 2191.150475 152 143 116
478.944874 123.635316 2191.150475 152 143 116
21.582927 -263.359451 1950.241470 207 206 182
481.623507 137.169659 2192.878532 234 227 189
455.916166 367.217708 2165.777397 175 161 128
14.291283 -215.530467 1944.244385 212 206 174
464.682293 -3.804984 2191.602516 198 184 154
470.835352 54.054695 2192.571068 156 151 121
16.325568 -279.957390 1950.387955 182 184 162
10.787328 -150.166678 1940.805244 217 210 182
10.787328 -150.166678 1940.805244 217 210 182
472.553301 80.880940 2193.001556 244 232 196
469.742298 296.825576 2180.033493 190 178 142
12.293695 -158.254802 1943.393707 139 143 112
472.474098 48.195618 2195.493698 228 213 174
16.255935 -132.855248 1944.638062 144 144 116
-9.357484 -337.726760 1941.708565 159 156 122
13.846579 -208.800578 1948.237038 161 156 123
453.935575 369.225407 2168.494987 162 154 122
473.041534 28.588882 2198.087311 207 192 153
467.115736 197.028327 2185.978889 246 236 205
445.184374 -18.697742 2186.331558 244 239 211
472.561502 248.764944 2187.405014 253 247 220
469.095087 58.984321 2196.474075 135 124 85
7.536660 -144.003069 1946.092606 150 148 119
457.488012 2.510108 2194.951439 199 191 163
9.285498 -249.255013 1954.555511 187 185 161
474.421597 230.978060 2192.590904 172 159 127
468.014669 56.392187 2199.032593 218 205 164
11.620431 -136.619687 1952.328491 209 203 174
