ply
format ascii 1.0
element vertex 1067
property float x
property float y
property float z
property uchar red
property uchar green
property uchar blue
end_header
211.073017 454.973888 1695.274353 149 146 132
211.073017 454.973888 1695.274353 149 146 132
161.961305 412.758255 1711.276817 242 238 226
255.674362 559.337616 1676.713753 201 192 182
255.090833 562.057829 1677.515411 183 174 162
85.119826 181.920290 1748.557472 27 21 16
214.410973 459.073687 1696.263885 125 121 109
111.918998 387.173581 1729.485130 24 18 13
212.081504 752.336645 1679.642296 46 52 51
247.820520 509.267426 1685.029221 226 217 204
207.237887 748.294163 1681.659698 60 61 61
253.326678 572.091532 1680.821991 58 60 54
81.623447 142.980623 1755.211449 55 46 34
20.963043 90.248322 1776.104355 90 81 68
220.414925 450.919151 1699.559402 73 70 56
200.418019 469.244289 1704.076958 19 21 15
84.991091 120.990407 1757.646561 174 161 149
229.766393 705.051041 1682.359505 119 119 119
248.633909 583.821678 1684.716606 144 137 133
258.682990 537.929010 1685.454941 77 71 66
216.866612 738.553476 1685.291100 118 118 118
253.504109 577.092981 1685.419464 130 119 117
-510.701036 -133.735120 1942.459679 55 64 66
151.476502 403.251028 1726.203728 117 111 88
218.085194 704.101610 1689.689827 53 53 53
131.345475 347.513342 1736.365509 46 37 25
257.157254 534.288645 1690.991592 210 204 199
143.948269 304.339051 1737.722015 214 198 181
136.828136 358.942080 1736.661911 29 22 19
-431.125069 -221.039033 1933.072090 72 64 54
179.279125 391.927433 1724.261665 222 206 189
200.732732 494.575691 1712.191200 43 43 43
249.714899 551.345301 1694.952393 184 175 162
133.839560 362.471390 1740.210724 179 175 164
194.670606 761.648989 1698.672867 86 87 83
99.488270 139.738262 1763.872719 87 81 76
197.190475 760.703802 1698.143959 86 87 83
168.030584 399.795794 1728.704834 157 142 125
186.902535 424.890232 1722.703934 217 211 206
147.860658 299.288917 1742.270470 192 176 159
196.845210 481.289482 1717.303658 26 26 24
143.951666 306.090355 1744.215965 80 64 47
143.951666 306.090355 1744.215965 80 64 47
195.124590 414.140892 1723.421478 147 144 131
195.124590 414.140892 1723.421478 147 144 131
107.654893 133.083487 1767.950439 40 34 29
167.076170 392.603564 1735.812950 147 134 108
170.886374 391.755080 1734.955597 147 134 108
170.886374 391.755080 1734.955597 147 134 108
139.721608 345.814037 1746.776390 157 154 140
190.697968 487.760401 1723.830032 133 137 136
200.113869 476.057577 1722.488213 102 107 104
172.431695 396.628761 1735.344505 195 182 156
230.349016 564.484310 1710.548973 171 162 149
-437.938929 -227.423453 1951.225281 71 72 70
134.683013 329.678845 1752.953148 93 87 82
162.984264 387.096882 1742.992592 207 194 168
162.984264 387.096882 1742.992592 207 194 168
226.540732 520.913887 1717.422867 151 149 146
-405.840206 -217.592120 1945.668221 36 31 27
114.017177 162.212527 1773.344994 45 39 34
53.455687 92.740387 1795.153236 84 75 63
120.279813 223.981738 1768.746567 155 146 133
213.679862 441.192341 1728.347778 229 224 217
144.108534 375.752306 1753.912926 224 211 185
-417.509747 -208.327556 1953.759384 85 82 81
188.231027 749.920273 1720.125961 156 158 152
180.691564 760.122442 1724.335289 155 157 151
104.877377 282.045412 1777.088356 30 24 19
225.917268 566.287088 1725.754166 172 163 150
111.766160 245.255899 1781.017494 71 65 60
135.576856 293.680143 1771.044731 159 150 141
163.113189 755.666924 1735.132599 113 115 109
127.868772 267.609835 1775.585747 150 141 128
139.611173 299.485278 1770.251083 72 62 51
222.704744 582.286453 1728.539085 85 74 70
213.472533 587.660217 1732.040977 114 105 101
192.491210 458.192396 1746.556473 31 33 28
60.090017 95.706457 1808.350945 112 106 101
45.359084 90.874583 1813.261986 37 31 26
154.311931 358.439684 1767.977333 53 45 36
154.311931 358.439684 1767.977333 53 45 36
138.145542 149.962890 1786.456680 65 59 54
141.235340 310.306239 1775.846100 66 54 50
128.320885 266.391039 1782.683754 43 36 28
136.092830 283.076048 1779.861069 145 136 124
168.863893 461.530066 1760.353088 14 8 4
-387.173629 -189.493167 1967.558670 95 104 102
122.232985 216.996813 1789.739418 110 103 98
122.232985 216.996813 1789.739418 110 103 98
159.746516 397.503543 1769.439888 15 9 5
177.623129 611.876869 1752.683067 127 122 117
145.344412 381.436467 1777.459335 22 16 12
135.221279 279.422855 1787.349892 113 106 98
128.525305 480.179691 1779.295349 56 56 56
131.753182 432.297134 1781.694984 90 84 79
132.158744 271.508479 1792.283058 55 57 51
110.928226 97.725761 1809.434700 42 36 31
-251.923394 -24.392723 1928.433228 212 224 230
139.838338 212.581420 1796.018791 149 143 138
141.656423 176.180553 1797.716141 26 26 27
139.974499 268.449020 1794.742775 18 20 14
81.231898 86.820346 1823.967743 179 173 168
173.352826 529.428720 1769.684029 228 212 195
138.177526 353.696799 1791.543007 42 34 28
123.161781 439.179230 1792.975807 19 13 8
139.148736 372.169781 1794.190216 105 95 80
186.809576 530.922604 1770.244789 218 203 187
138.048983 172.026753 1807.361603 71 62 49
138.048983 172.026753 1807.361603 71 62 49
151.933014 256.603956 1798.948860 116 110 106
132.076919 414.517069 1796.296692 71 65 60
132.631052 334.142542 1801.584053 14 13 11
122.768342 434.154272 1798.966026 75 69 64
120.581865 159.022868 1816.742134 79 73 68
148.924673 168.369770 1807.636452 176 167 154
162.727463 760.075045 1769.955444 100 100 100
107.731843 41.985309 1833.455849 118 106 102
133.051109 763.615322 1782.312584 18 18 18
156.205499 243.145442 1807.345772 148 142 137
156.205499 243.145442 1807.345772 148 142 137
155.413628 231.448221 1810.276413 27 21 16
-45.610926 -170.505643 1899.088097 28 30 25
135.161936 108.070374 1825.378036 175 165 155
108.049452 35.221180 1838.509750 35 28 25
123.210084 325.920677 1817.674255 60 60 59
157.952690 204.063272 1814.614296 61 50 43
-31.032541 -165.979433 1898.310661 144 146 141
127.802825 73.762476 1833.835411 136 125 119
-348.334622 -438.071680 2019.566727 49 56 57
98.803681 54.387838 1847.411537 127 121 116
-3.719509 -177.777469 1894.906616 90 92 86
109.292543 -19.149378 1851.364326 38 32 27
152.383506 184.334719 1827.379608 44 38 33
130.433321 -47.792745 1848.826408 76 76 76
148.528647 124.190879 1833.432198 39 33 28
-359.200716 -488.164854 2035.730934 0 0 0
5.857784 -164.481413 1898.416519 29 31 25
131.369197 107.122540 1841.413689 59 53 48
15.491939 -157.925642 1898.883057 47 49 43
-44.975665 -257.377815 1927.192307 57 55 52
151.095366 572.185564 1817.195320 34 35 35
148.684621 -94.270629 1858.380699 217 200 186
66.641927 -172.267747 1891.721535 205 199 194
116.102111 54.848719 1862.361336 96 90 85
-343.160295 -424.693584 2044.052124 71 81 85
162.605548 23.231916 1849.512291 199 194 189
123.357260 528.783464 1832.363319 102 108 107
152.014744 -63.817042 1858.553696 27 27 27
167.406213 -88.252789 1855.050468 56 38 30
158.053553 32.011920 1851.248550 57 52 47
-319.926667 -462.879419 2041.081047 157 146 142
149.088562 -68.017811 1861.529350 70 70 70
-326.060128 -443.828392 2043.373299 28 20 19
-35.031906 -263.524938 1935.720444 76 82 79
162.696874 311.201024 1835.345268 71 71 71
162.438989 -93.671060 1860.464668 40 31 18
149.506366 -62.592614 1863.215637 73 73 73
141.736424 473.712397 1833.806610 49 49 49
-338.966537 -496.916962 2053.593826 21 20 11
200.110626 603.025293 1807.369995 105 105 105
142.750144 -42.866969 1866.370010 35 29 24
180.056381 264.041018 1836.011505 123 117 113
177.144635 257.771111 1837.486076 36 30 25
177.144635 257.771111 1837.486076 36 30 25
188.403738 586.695385 1814.360619 99 99 99
-318.831635 -449.932146 2047.593689 90 83 78
85.357398 34.907907 1882.521820 40 35 31
179.798353 -105.304730 1859.381676 238 231 211
-341.050196 -381.927276 2051.707458 57 64 70
120.010817 99.141961 1868.166351 14 14 14
166.258490 466.271305 1830.633926 120 120 120
151.023018 285.997081 1846.723747 7 7 7
114.027834 57.230479 1873.621368 10 8 6
164.384961 -44.622070 1862.853432 25 19 14
139.857972 116.761136 1864.507675 49 45 41
158.540118 314.895296 1846.490479 114 114 114
156.825471 41.665709 1864.732742 15 15 15
98.137039 99.650294 1881.625175 150 150 150
103.403926 88.002932 1881.466293 143 143 143
183.435524 361.533713 1837.815094 22 24 23
166.898715 -58.676684 1869.186211 162 156 151
166.898715 -58.676684 1869.186211 162 156 151
97.009987 -214.498425 1902.679062 116 102 86
125.061691 168.389976 1870.705605 117 117 117
165.753472 -112.568855 1874.112320 220 217 190
-322.041464 -466.047192 2062.378502 188 181 159
136.537039 151.219797 1869.142151 119 119 119
136.537039 151.219797 1869.142151 119 119 119
179.047310 -55.438811 1868.030739 28 22 17
-319.769955 -481.035185 2065.147209 113 93 90
-319.769955 -481.035185 2065.147209 113 93 90
-345.088196 -387.073588 2068.260193 16 16 16
-325.111556 -448.997068 2065.510941 174 167 147
98.864275 -190.959930 1905.638123 88 77 63
-307.603264 -469.625139 2063.365746 48 36 32
-353.465033 -497.673988 2081.439209 38 33 27
-353.465033 -497.673988 2081.439209 38 33 27
126.832974 -136.256278 1895.191383 79 68 65
111.923707 -146.304786 1902.230644 38 32 27
178.730285 -99.690574 1877.048302 78 62 46
-311.022544 -398.569584 2064.909554 36 30 25
-345.647478 -496.796322 2086.209679 129 145 151
-345.647478 -496.796322 2086.209679 129 145 151
90.464193 -200.468969 1920.192909 198 182 165
135.704923 -157.164454 1902.652740 85 79 66
197.708797 -36.665002 1874.142265 141 136 126
-299.776602 -473.290968 2079.273796 72 63 50
-328.113365 -486.253262 2090.435791 117 100 96
160.106432 -121.201503 1900.093460 221 223 217
216.763067 -68.008459 1880.817795 157 145 130
218.247747 -75.460082 1882.984924 147 134 109
156.277514 -154.550779 1910.391998 102 104 96
210.523462 -80.836457 1888.138580 223 212 190
134.644985 -133.257329 1918.632698 86 83 69
210.237622 -88.142192 1888.821983 203 194 181
4.584585 -279.721880 1976.737404 205 195 185
219.670010 -75.813752 1887.080002 237 226 200
205.384874 -53.280109 1892.692757 27 22 21
210.493898 -91.712075 1894.712448 234 230 212
118.388224 -192.272234 1934.107208 132 123 110
142.128611 -156.095314 1924.604034 147 133 115
187.109888 495.307922 1870.352554 0 0 0
160.199904 -129.354441 1918.456078 95 91 78
214.555526 -89.503819 1897.448158 89 82 63
220.233321 -42.891777 1893.845749 35 29 22
214.831209 -91.958183 1902.011871 245 239 220
-94.171703 -314.230537 2030.989265 24 18 13
160.716379 -138.169312 1927.331161 45 42 28
204.355788 -22.286476 1904.545403 164 157 138
228.037548 -64.195663 1898.839760 119 103 86
153.720653 -144.842553 1931.753731 189 180 167
9.121517 -361.794329 2002.596092 100 94 89
-150.030267 -321.660614 2059.573936 228 222 217
-23.429291 -361.980939 2015.117645 186 180 176
230.781364 -63.314992 1903.264999 124 109 92
230.781364 -63.314992 1903.264999 124 109 92
209.502578 -24.556658 1909.860039 61 60 43
157.302701 -130.861557 1938.480186 119 112 93
-95.387161 -329.282546 2046.273613 33 27 22
-7.381959 -316.340995 2013.484573 29 23 18
16.373983 -362.999177 2007.117462 76 65 61
-99.000800 -306.051803 2047.605896 94 88 83
141.344774 -153.104484 1948.226166 206 196 177
166.655171 -126.585734 1938.592720 191 184 165
194.966364 5.437124 1920.497513 173 172 152
174.431300 -130.090725 1937.844276 116 109 90
154.689789 -150.104690 1948.233414 212 205 186
205.554700 -12.438107 1922.908020 161 155 150
207.362318 -12.231352 1922.312927 161 155 150
203.323317 -6.589682 1923.792076 42 37 32
216.568661 -55.778944 1924.776840 56 45 52
53.415912 -361.618567 2008.047676 183 166 163
208.792329 2.796970 1928.014755 199 186 167
164.070487 -139.253354 1954.511642 53 47 42
221.532774 -64.687622 1928.290939 150 141 128
164.617276 -138.595486 1955.344391 59 53 48
214.464140 -41.952175 1936.068726 49 40 43
65.832752 -239.343905 2005.343437 66 54 50
208.363390 13.036923 1935.530472 83 73 64
153.083658 -166.702163 1968.274498 152 136 119
153.083658 -166.702163 1968.274498 152 136 119
69.455945 -368.803310 2013.458061 172 156 147
63.535506 -251.235557 2010.267067 117 108 95
217.547965 303.712106 1918.705750 32 26 19
200.806403 -71.709180 1947.627831 65 63 55
89.865464 -217.168093 2000.939369 160 148 144
136.641395 -186.594689 1981.672287 217 201 184
165.920043 -136.949515 1968.586159 57 50 45
175.569618 -114.953136 1963.771439 209 217 211
209.996414 300.285721 1927.277184 151 144 134
75.190592 -231.123185 2012.719917 149 138 129
195.868909 -79.027921 1957.131577 85 88 96
217.016149 -34.546152 1947.367287 84 73 54
56.361222 -379.002380 2031.168938 178 170 153
74.238265 -238.155890 2016.692924 86 74 70
196.632528 61.856651 1950.868225 35 35 33
216.731262 402.721500 1924.523926 47 51 40
215.680790 35.073605 1946.866798 23 17 13
196.901572 394.608808 1933.998871 113 108 94
197.626579 203.001666 1944.917297 64 58 52
223.370957 1.188974 1946.807861 27 27 27
172.713888 -114.291871 1973.823929 225 231 230
214.388609 7.238542 1950.930023 225 227 221
75.549185 -340.654778 2026.570320 89 71 65
201.534915 51.398766 1953.959656 34 29 23
163.323176 -103.953254 1978.338432 217 218 218
181.946158 -73.641169 1969.215202 52 55 63
181.946158 -73.641169 1969.215202 52 55 63
228.905988 321.106267 1928.139687 168 163 135
217.050815 -44.744861 1954.389954 238 233 208
211.010337 -48.847929 1957.017326 247 241 228
193.816090 190.563929 1950.351715 208 199 186
214.131403 -52.647328 1956.511116 37 28 16
82.777840 -373.999834 2028.027153 176 167 153
180.616105 -126.200545 1974.730873 197 190 171
226.625919 -18.823701 1950.471687 123 117 112
179.082692 -115.234935 1975.156975 200 206 205
212.373543 407.625723 1932.174873 109 113 112
197.794545 180.022919 1951.760864 103 97 92
185.818827 271.600151 1951.414871 121 116 112
197.176778 193.585753 1951.453781 199 190 179
206.175232 227.368426 1946.187019 43 37 32
177.724004 -84.609753 1976.105499 196 199 207
212.219548 403.665924 1935.169029 57 49 56
192.524064 117.651510 1959.756660 30 25 23
212.685943 99.263400 1952.763748 105 105 99
228.902769 449.488354 1925.877190 78 73 59
169.899726 -151.962996 1984.864998 186 171 154
200.749159 128.970766 1956.620407 137 130 120
243.508744 310.044336 1929.212189 134 127 108
66.152060 -395.002651 2042.129135 115 103 99
221.527791 218.460655 1944.313812 81 78 64
158.468139 523.631859 1951.924515 1 1 1
219.291711 423.639679 1933.775902 117 117 117
90.375412 -313.426018 2028.658485 103 91 87
239.323354 -34.463796 1952.636337 155 139 123
214.906001 222.913051 1948.755646 48 47 42
213.613462 392.067933 1939.633560 126 126 126
225.308824 371.936154 1936.371803 25 23 29
194.942665 112.801301 1963.721275 130 126 121
97.102237 -289.252281 2026.916313 154 145 132
196.240985 103.278816 1964.444351 47 42 37
220.695949 272.878027 1944.936752 161 147 128
220.695949 272.878027 1944.936752 161 147 128
234.097457 374.680161 1934.214783 80 86 85
227.445912 289.591622 1942.082024 219 212 193
216.054106 382.486749 1941.790771 36 42 41
203.246617 180.841017 1959.706879 164 157 138
223.855758 -13.756435 1962.852478 174 171 159
223.855758 -13.756435 1962.852478 174 171 159
212.865782 227.214241 1953.503799 46 46 46
235.603261 34.697929 1955.645943 68 66 62
199.144864 1.396528 1972.450829 48 44 34
197.465396 127.594411 1966.476440 81 77 56
236.364031 466.759872 1932.067680 30 29 32
73.025370 -390.079331 2049.441910 116 107 94
180.126667 -99.677497 1989.120674 200 206 205
228.064609 423.277378 1939.623642 201 201 201
170.564258 -143.007767 1995.982742 176 160 143
231.931782 -17.159520 1963.698387 38 32 28
222.333193 49.131688 1964.343262 67 68 67
235.053182 429.326820 1937.936020 64 64 63
196.509647 123.299372 1971.460342 164 157 138
196.509647 123.299372 1971.460342 164 157 138
240.186954 -22.316824 1962.690735 221 204 196
150.786686 -567.164230 2031.307030 0 0 0
235.777521 25.360140 1962.125206 122 114 98
175.023150 -91.703314 1993.784714 55 60 64
212.368679 57.306534 1970.466995 151 153 147
218.842316 228.463459 1958.048630 25 29 25
110.617864 -266.790771 2031.374550 115 109 104
102.319610 -474.991369 2048.557472 43 35 36
212.247467 192.429447 1964.867973 71 64 45
168.868327 -147.436047 2002.604675 220 204 187
86.933869 -403.140926 2051.683617 107 98 88
194.080710 -59.585333 1988.437462 67 73 72
91.533911 -457.712603 2054.026031 31 31 31
209.326696 -42.415404 1981.604004 99 104 104
248.572516 458.626318 1936.445808 223 217 212
107.138991 -289.416218 2038.025856 182 169 164
205.132556 -6.605231 1982.711792 31 32 31
203.392601 99.481416 1977.525902 140 134 128
77.628863 -400.565958 2058.937073 105 97 90
180.942583 -99.652356 1999.446678 193 199 198
221.372628 394.754291 1954.212761 130 131 131
224.521160 279.526448 1959.826279 74 78 58
228.277397 43.720344 1971.955490 49 42 40
176.216578 -47.765544 1998.846626 170 176 175
227.410316 420.782614 1950.740242 67 69 63
240.327120 313.240623 1952.038002 111 104 97
215.755010 248.858571 1966.805840 25 27 20
126.210582 -553.228188 2050.167084 30 27 27
241.439748 58.077544 1967.300415 62 64 58
134.379363 -542.300177 2046.418571 72 71 71
244.271398 477.881336 1943.882561 40 48 31
184.390891 -73.398751 2000.837326 112 115 123
228.880095 416.761971 1954.074669 63 65 59
216.152024 409.756517 1960.058212 46 48 42
241.343284 303.191662 1955.881691 87 78 65
239.165878 439.321089 1948.952866 42 52 53
239.165878 439.321089 1948.952866 42 52 53
248.086572 437.531281 1945.822144 42 52 53
237.387085 343.063307 1956.241035 185 191 190
169.328892 -133.515322 2012.490654 111 95 78
235.557652 337.499213 1958.134842 42 46 45
212.659168 170.589149 1977.637863 184 177 158
218.088651 205.456328 1973.575974 195 194 168
171.788776 -122.750437 2012.599754 140 125 108
214.978099 142.165554 1979.713058 195 186 172
251.105833 474.089813 1945.524788 42 44 38
232.102489 22.570115 1980.453300 243 235 222
186.539805 -70.229667 2005.373955 200 203 211
186.539805 -70.229667 2005.373955 200 203 211
185.663319 -48.564738 2004.634476 184 190 189
222.174859 77.730471 1982.048035 35 35 35
171.642399 -148.742664 2016.260338 130 115 98
228.721571 26.028836 1982.941818 214 202 198
255.533886 626.276588 1937.741280 79 91 97
211.985111 141.510093 1984.360695 123 114 101
234.695697 392.169261 1960.583687 177 179 173
188.476062 -37.355456 2005.545807 220 220 220
244.805503 427.974939 1955.106354 192 185 179
184.648919 -64.818573 2008.960915 52 55 63
210.268235 113.981271 1988.045311 177 174 160
232.245803 416.480207 1962.276840 205 199 194
131.681025 -252.256012 2043.471718 139 124 113
249.109292 293.120265 1962.673569 219 210 197
75.179833 -388.124442 2075.668144 52 48 42
237.240386 238.775206 1971.339798 110 104 82
211.283398 97.724831 1990.562439 141 138 124
244.191480 223.498750 1969.549179 134 125 104
181.121612 -101.955414 2015.657234 194 200 199
232.371545 422.380638 1964.886665 87 81 76
224.669576 68.902564 1989.644814 147 144 131
224.669576 68.902564 1989.644814 147 144 131
126.394713 -275.883126 2051.046181 170 158 144
221.956134 200.557566 1983.638573 55 59 53
210.652828 280.601740 1984.444427 65 67 63
247.534490 366.163445 1964.536858 171 160 146
183.626628 -75.325429 2017.544937 123 126 134
348.918152 560.182667 1910.853958 109 125 137
348.918152 560.182667 1910.853958 109 125 137
165.437555 -154.245138 2029.915237 161 145 129
170.008218 -588.354063 2053.293419 126 116 111
242.825389 219.989610 1976.755905 70 64 51
241.773605 378.105211 1969.372177 47 53 52
231.262422 54.926634 1992.691040 99 93 88
177.241647 -45.529068 2022.235489 206 206 206
178.988719 -76.376915 2023.490906 215 218 225
169.999325 -148.299348 2031.556702 136 121 104
251.231861 430.530930 1963.635635 123 117 106
240.716577 218.448043 1980.664635 240 238 225
134.824204 -254.719472 2053.217697 219 201 190
206.110692 -83.022505 2013.296509 207 212 213
206.110692 -83.022505 2013.296509 207 212 213
144.595087 -219.045353 2047.575188 92 83 70
227.574563 198.853660 1988.204765 193 190 176
230.318022 281.766105 1982.472992 52 50 44
206.952262 131.776714 2001.367378 36 30 25
203.448987 120.176804 2003.646088 116 112 98
254.040766 441.978455 1963.601875 37 31 26
192.620265 180.386412 2006.410408 161 160 140
225.603294 394.092417 1980.054855 35 35 35
105.992413 -327.063489 2072.742844 170 164 149
195.892155 165.596604 2006.219673 153 154 152
253.287125 429.803658 1966.511154 200 194 189
223.725557 81.876153 2000.182533 106 111 111
221.564221 205.675149 1995.702934 194 194 183
166.051459 -162.358451 2041.075134 230 225 198
199.895251 -0.242974 2017.567253 189 189 189
231.803870 290.577269 1988.101959 74 77 82
246.207666 228.599858 1986.905861 74 62 58
220.214176 82.426757 2006.810951 20 18 16
212.936473 25.388494 2013.657570 231 220 207
230.401039 371.552110 1987.391281 45 51 50
198.010921 -47.839785 2027.075768 51 57 56
200.743127 215.061259 2010.939217 80 81 81
221.466804 38.256767 2012.135124 219 213 195
238.266253 527.514029 1977.026558 174 184 190
187.013817 -50.465751 2033.003235 71 77 76
202.194095 123.946214 2016.564941 59 61 50
208.221436 29.202327 2019.371796 55 43 39
255.867434 526.158047 1971.006203 181 195 202
200.277328 204.895306 2013.795090 157 157 156
216.754603 418.673563 1994.528389 65 70 70
140.487301 -198.517084 2063.386726 174 173 151
172.895253 -127.982557 2045.710945 202 186 169
186.565173 -106.845784 2038.645172 75 78 86
205.476761 119.741094 2017.765999 106 106 105
174.219263 -146.911120 2046.725273 191 169 153
199.106205 283.380246 2011.611366 47 50 58
232.697010 221.707106 2001.176453 234 225 221
218.166089 47.216493 2017.521858 203 201 187
201.208591 176.082599 2018.424988 186 192 191
254.086518 447.032070 1979.964828 48 42 37
200.449753 171.649039 2019.343376 136 142 141
243.435240 74.806631 2006.789207 199 196 181
203.135180 209.294987 2016.915512 89 89 89
192.931271 -43.815249 2036.425591 208 214 213
240.116096 68.956167 2009.614182 229 221 208
210.904551 242.576981 2012.466049 68 65 63
219.828773 279.938149 2006.629753 65 68 76
182.454550 -143.930602 2047.253036 162 154 135
185.164654 25.875080 2037.086105 97 94 93
219.993377 397.329950 2000.888252 31 34 42
386.485052 566.830111 1918.434525 31 42 49
251.745081 439.786816 1984.971428 52 41 27
216.326213 352.125096 2006.241417 49 52 60
194.454849 -27.923355 2037.863350 206 212 211
190.688097 -78.396863 2042.511177 185 191 190
215.745974 316.382909 2009.979057 52 55 63
198.655796 -43.402618 2039.918518 202 207 207
218.080425 113.013399 2022.752380 33 33 32
189.103162 -84.958315 2047.244072 183 189 188
189.103162 -84.958315 2047.244072 183 189 188
220.046782 423.860312 2004.700851 90 93 101
221.842623 459.463692 2002.992439 49 50 51
227.431655 332.021999 2008.035660 32 36 41
220.828938 302.935100 2012.702370 74 77 85
179.487133 -149.981773 2058.133316 217 202 184
201.442218 245.378304 2025.904465 85 88 96
197.266412 22.311246 2040.586090 64 64 64
174.824703 -106.888509 2058.019257 78 84 83
174.824703 -106.888509 2058.019257 78 84 83
214.175200 367.841983 2014.053345 121 124 132
365.548730 602.133656 1933.601761 148 154 161
223.286939 402.703047 2009.183884 79 82 90
201.897669 149.710143 2033.698654 64 64 64
206.350374 213.989472 2028.815842 170 173 181
196.250415 -16.679919 2046.911621 114 114 114
206.800723 184.933126 2030.977249 187 190 198
185.354245 -89.627808 2056.159401 181 181 181
366.393518 592.693710 1936.845589 55 67 73
214.862680 307.703662 2020.676613 76 79 87
363.469315 636.979914 1935.883904 180 183 191
220.935607 129.368496 2029.057693 162 169 148
243.450046 62.044936 2022.987556 114 106 93
243.450046 62.044936 2022.987556 114 106 93
247.941852 81.508929 2020.321465 31 32 32
194.892704 37.932414 2046.639252 206 208 200
212.964463 260.305572 2025.929070 190 193 201
181.568229 -107.814395 2061.435127 186 192 191
181.568229 -107.814395 2061.435127 186 192 191
371.994162 594.730806 1936.522865 125 137 143
375.486398 625.726795 1933.931351 118 121 128
208.688140 227.473140 2032.035828 103 106 114
193.965101 -8.358141 2052.538681 93 93 93
211.898613 334.383965 2025.259590 60 63 71
204.272580 235.032940 2034.522247 94 97 105
204.272580 235.032940 2034.522247 94 97 105
210.708094 -33.782390 2047.192383 60 66 65
215.666175 433.320713 2019.403458 48 51 59
148.073256 -193.229234 2085.533333 77 79 73
155.619025 -195.873499 2082.501793 98 100 94
195.114112 -4.813292 2054.143143 209 210 210
203.340840 -569.359589 2082.599258 99 92 89
239.579177 515.669727 2004.860115 69 72 79
257.326102 70.448834 2022.759438 75 66 53
257.326102 70.448834 2022.759438 75 66 53
166.406846 -204.029536 2079.747772 186 184 160
216.246557 296.427202 2029.903221 145 148 156
169.704545 -142.955732 2075.883675 210 197 171
213.923454 333.295703 2029.289246 117 120 128
222.013450 386.896777 2023.081779 66 69 77
200.981331 -553.053761 2086.480331 162 150 146
200.981331 -553.053761 2086.480331 162 150 146
203.708601 256.688094 2041.441917 112 115 122
220.609307 348.185444 2028.607750 51 54 62
171.267498 -218.131471 2083.340454 125 118 99
216.534472 -1.197578 2050.759315 215 218 214
242.435741 114.176977 2033.065224 196 205 179
204.745889 148.765349 2048.930931 54 55 51
216.253352 267.621469 2038.610840 199 202 210
218.724251 358.937716 2032.371902 153 156 164
178.448212 -145.816565 2079.335403 202 185 160
212.377334 -530.452585 2086.523247 70 64 59
402.338648 600.364971 1936.791039 126 129 137
217.496943 310.996389 2037.874413 199 199 199
255.042434 88.003844 2033.489609 41 41 41
255.042434 88.003844 2033.489609 41 41 41
168.576777 -186.986232 2088.559151 156 160 146
445.729828 556.615257 1920.357895 173 185 191
213.215756 202.905917 2046.982384 147 150 157
-168.490326 -358.076978 2253.610802 28 22 17
230.500364 462.731075 2024.967766 56 59 67
217.393446 46.482223 2055.008125 39 28 15
202.991533 -19.098219 2065.596962 147 150 157
226.454997 333.372974 2035.466576 111 114 122
226.341867 448.095560 2029.054260 67 70 78
214.068222 167.680132 2050.958443 178 182 186
221.504116 147.722673 2048.880005 180 185 157
212.310863 211.503577 2049.621582 98 101 109
170.076895 -183.829355 2091.453171 58 63 48
237.827659 493.639994 2023.206711 61 67 66
225.662470 442.014933 2031.871986 82 85 93
219.422007 376.262021 2038.646889 133 139 138
227.322173 373.069191 2035.570526 115 120 122
222.975969 405.623960 2036.805916 97 100 108
185.886109 -111.292636 2083.364296 75 84 76
185.886109 -111.292636 2083.364296 75 84 76
254.938531 76.078337 2042.183495 71 65 60
241.679120 89.134651 2047.868156 34 28 23
441.804457 561.988401 1929.327583 175 179 187
193.838787 -138.584900 2083.553696 141 133 119
222.966027 366.100788 2042.837524 151 154 162
274.171138 68.556243 2036.281586 251 244 231
261.292553 531.716061 2016.103554 181 197 209
220.722485 153.432035 2056.722832 24 30 29
228.270292 -540.859890 2092.665863 163 157 152
198.987103 -16.852483 2076.814461 69 75 74
165.390849 -224.032593 2106.385422 219 216 202
223.382354 143.391287 2059.135818 166 170 101
219.679070 266.826010 2054.080009 190 193 201
379.973054 694.213820 1955.866432 127 130 138
219.515729 376.778555 2048.333931 82 88 87
226.833653 393.056774 2044.464493 83 88 88
205.732512 5.543696 2076.217270 201 207 206
214.183593 -23.254073 2073.984146 190 196 195
204.683328 -20.159464 2078.339386 81 87 86
173.885095 -565.983915 2123.488998 15 15 15
186.727178 -60.156953 2089.029503 133 141 134
226.621819 432.620239 2043.773460 126 129 137
225.364995 472.269535 2042.211914 66 71 73
224.668980 134.117973 2061.763573 155 148 131
187.855339 -80.370355 2091.078568 117 123 122
172.127211 -206.310248 2105.979347 112 107 99
172.127211 -206.310248 2105.979347 112 107 99
415.669298 641.492653 1945.806122 129 131 139
226.203156 276.853323 2054.975128 177 178 178
228.443646 444.761753 2044.526672 55 58 66
190.413976 -56.440896 2090.922737 74 81 78
195.157933 -71.094275 2089.641190 172 176 180
245.847392 -644.611359 2098.509407 69 71 65
215.743375 247.035980 2062.615967 83 86 94
249.862456 90.866286 2055.759239 226 220 215
213.830662 212.688780 2065.908813 90 93 101
217.073369 390.368080 2054.701805 173 179 178
215.434241 143.723726 2069.931412 76 71 69
218.949270 400.940704 2054.041100 46 52 51
223.432159 49.610594 2072.605896 99 96 82
220.555735 273.821759 2061.446571 195 195 195
220.540762 205.079818 2065.331841 101 104 112
220.540762 205.079818 2065.331841 101 104 112
419.062996 640.758610 1947.952080 176 179 187
207.745552 41.818774 2080.687332 58 62 62
231.429482 70.568621 2068.438911 241 235 222
205.857277 -6.220387 2084.996033 97 103 102
241.016150 110.576618 2062.213898 25 25 25
223.987556 407.557964 2054.051018 189 195 194
227.037930 419.185591 2052.002144 159 162 170
208.700442 0.115153 2084.542274 191 197 196
209.901047 26.452184 2083.260345 74 80 79
208.320928 135.673308 2078.500175 58 58 58
241.504073 526.227903 2041.890335 122 122 122
245.268226 81.285894 2065.692711 250 244 240
227.527285 439.831257 2054.577255 163 166 173
215.725684 52.617276 2081.963348 230 228 215
225.121546 299.702287 2064.128876 214 217 225
218.412375 176.854432 2074.388123 179 191 197
229.577971 68.780547 2075.867081 243 238 220
223.454618 322.975302 2064.625549 53 56 64
230.366826 75.210547 2075.755692 35 22 19
197.079229 -114.002657 2102.171135 209 214 177
239.154434 481.177425 2049.113464 68 70 70
217.508984 236.417842 2073.784828 75 78 86
227.346945 255.357528 2068.398857 55 58 66
233.838058 502.599669 2051.787376 149 149 149
233.410621 369.309902 2059.714699 211 214 222
228.645110 282.693601 2067.329597 226 226 226
229.390454 123.003983 2076.396370 35 35 35
243.317080 83.039749 2072.331047 124 104 100
222.873139 356.885123 2067.259407 129 132 140
224.296665 388.122630 2064.855194 98 104 103
207.851696 29.511288 2093.010712 125 128 135
239.700198 514.642096 2050.904465 156 159 167
225.034952 213.757038 2075.494194 146 149 155
226.079941 391.086197 2065.049171 168 174 173
202.363801 -34.890312 2101.198959 136 144 137
226.874232 489.953232 2060.175323 163 163 163
236.092257 485.795784 2057.627869 105 105 105
267.209864 528.456116 2040.622711 175 191 200
226.989388 342.972684 2070.266342 161 164 172
-182.402766 -502.967215 2313.141441 73 67 62
193.832958 -63.662070 2109.095192 67 73 72
220.786977 179.650927 2082.996750 167 179 185
220.786977 179.650927 2082.996750 167 179 185
252.366257 97.244006 2072.889900 210 202 183
193.670547 -112.050605 2112.920570 190 199 164
220.879960 124.565625 2086.756516 36 36 36
193.070114 -95.061684 2112.948036 170 181 180
228.585339 355.999088 2071.220207 207 210 218
232.355857 456.875753 2063.862610 175 178 186
216.499019 22.493432 2096.774864 36 42 41
213.564801 -6.747492 2099.970245 200 208 201
213.564801 -6.747492 2099.970245 200 208 201
225.315809 311.354566 2077.214813 208 211 219
224.783444 235.587978 2081.988144 61 61 61
224.783444 235.587978 2081.988144 61 61 61
-174.794447 -524.062300 2316.442108 38 32 27
194.228256 -52.471554 2113.268089 218 223 208
226.196361 73.512280 2090.933418 251 245 232
241.256666 113.275480 2082.270241 41 36 33
240.380478 516.090679 2060.524940 63 66 74
245.802116 509.295511 2059.844780 155 157 162
223.800468 420.266151 2076.911736 227 232 231
227.032089 120.894504 2092.401886 28 28 28
453.021002 646.999359 1954.755020 169 172 180
235.314441 395.770860 2074.212265 101 107 106
227.645350 260.109925 2085.611725 200 204 203
-194.302821 -551.223373 2334.889984 90 83 82
234.003448 344.472814 2078.004265 100 105 106
222.749639 244.570684 2089.477539 207 213 212
226.592827 333.835387 2082.863045 205 211 210
212.721920 -11.590966 2109.585953 207 215 208
233.187985 399.458885 2076.858521 180 186 185
272.227931 546.671867 2050.002480 94 106 112
-168.091905 -523.391199 2324.405289 69 63 58
218.111086 217.261624 2096.158218 208 218 225
227.002573 68.179440 2100.399399 225 218 205
240.915108 504.202700 2069.419670 79 79 79
240.915108 504.202700 2069.419670 79 79 79
231.813359 365.248656 2082.122421 196 202 201
237.473178 476.969242 2073.351669 163 163 163
200.704098 -73.136634 2122.218132 69 75 74
221.077490 63.257653 2106.404305 63 63 63
267.830086 554.891396 2056.401443 141 153 159
207.821918 -36.945826 2118.679428 163 171 164
221.808124 395.601678 2088.101959 63 69 68
216.682005 250.340414 2099.603844 231 227 228
233.437943 315.383887 2088.147354 221 227 226
192.848396 -129.679155 2133.406448 198 191 172
216.229677 59.196830 2111.793327 85 85 85
216.033268 51.329273 2112.959099 77 83 82
230.210567 382.228279 2087.704468 59 65 64
234.727526 290.783191 2090.715218 216 216 216
225.281835 222.084832 2099.284363 122 134 140
218.786621 -625.282812 2149.648285 26 26 26
246.022964 531.267405 2072.188187 86 90 94
219.756317 20.796479 2113.531113 84 90 89
-186.787438 -548.798132 2344.015503 25 18 15
229.474139 457.323170 2084.664917 181 181 181
214.177537 -7.412177 2118.163109 214 222 215
222.665334 170.704830 2104.233742 187 199 205
-229.287410 -380.472946 2356.194687 28 22 17
199.330556 -78.202856 2129.754639 141 149 148
276.774573 552.259159 2057.194328 165 179 185
232.565784 124.615443 2102.725029 47 47 49
232.565784 124.615443 2102.725029 47 47 49
219.899011 147.721744 2107.985115 162 165 173
238.930917 286.465597 2091.732597 157 157 157
468.358135 592.491388 1962.498283 156 159 167
231.856704 385.596204 2090.163040 147 152 151
232.320094 218.273211 2099.340630 210 222 228
236.766291 348.426890 2090.430069 207 213 212
255.766010 535.109234 2070.922279 186 203 210
471.539068 610.112619 1961.591721 183 186 194
223.153257 408.533573 2096.302223 55 57 59
220.751429 81.092119 2115.856934 215 208 189
220.751429 81.092119 2115.856934 215 208 189
267.694378 541.202545 2067.221260 97 109 115
231.557012 296.911216 2098.898888 223 223 223
227.368259 393.957281 2096.073341 187 193 192
224.202371 271.392250 2104.652214 127 127 127
201.262617 -81.794000 2135.850906 156 162 161
222.051716 181.452072 2111.509895 191 207 219
224.120998 298.889112 2104.469872 211 211 211
234.487963 245.973372 2102.758598 228 233 232
234.487963 245.973372 2102.758598 228 233 232
203.700447 -57.881606 2135.250664 184 192 187
219.111824 253.660679 2110.694122 171 177 176
222.672009 268.556333 2108.178329 214 214 214
209.689093 70.686460 2125.963020 78 73 68
219.000125 131.640768 2118.392181 42 42 42
219.000125 131.640768 2118.392181 42 42 42
-213.996077 -381.070900 2361.450386 78 72 67
241.458988 473.359776 2088.686371 182 184 178
215.347362 38.495189 2127.158737 129 134 133
228.110123 377.607918 2102.168655 65 66 66
226.937222 219.963026 2111.606598 85 88 96
226.937222 219.963026 2111.606598 85 88 96
234.080100 448.515463 2095.615578 100 100 100
234.080100 448.515463 2095.615578 100 100 100
234.080100 448.515463 2095.615578 100 100 100
243.201470 531.659746 2087.623787 82 82 83
250.076652 400.295353 2092.399597 124 127 135
233.793616 118.789768 2116.250229 40 32 34
236.285853 323.839474 2103.882027 63 69 68
230.394125 417.392540 2101.670074 173 179 178
182.182717 -155.362010 2158.157349 140 131 119
233.818007 305.840635 2106.833839 195 201 200
225.594473 256.564569 2114.486885 65 71 70
225.594473 256.564569 2114.486885 65 71 70
454.267311 659.811497 1978.424835 191 194 202
223.665237 84.315884 2125.605774 188 194 177
235.726333 217.746782 2113.043404 199 204 205
486.124039 594.996643 1967.774582 161 164 172
228.908682 434.835815 2104.990387 95 95 95
227.486682 158.591592 2121.130371 46 58 64
232.096195 255.190134 2113.852501 134 140 139
508.330965 560.825014 1959.294510 202 205 213
486.688375 641.914082 1965.646935 183 186 194
235.332584 294.262791 2110.566330 88 88 88
235.683393 465.713835 2100.925064 108 107 107
230.357265 85.367543 2124.772644 204 208 197
191.133559 -109.711170 2155.810165 173 184 155
206.051826 -77.405453 2147.365379 94 99 98
206.051826 -77.405453 2147.365379 94 99 98
227.392626 323.969555 2114.520454 110 110 110
237.453723 357.503724 2107.749557 91 95 94
252.331328 -485.856247 2147.867775 128 119 107
196.708274 -44.865921 2151.565742 217 221 215
205.810189 -65.413094 2148.202705 105 111 110
477.828646 660.309601 1973.047256 132 135 143
242.427135 475.400496 2102.106667 86 83 83
242.427135 475.400496 2102.106667 86 83 83
238.919330 77.820790 2126.314735 22 22 22
-189.805305 -553.871059 2377.420044 12 6 2
236.990237 292.317176 2115.962029 173 173 173
252.014089 27.060199 2123.476601 176 174 161
235.704851 402.852869 2112.056160 132 138 137
517.515278 548.416615 1962.090492 161 164 172
195.260155 -87.361652 2159.884644 216 217 215
252.816272 313.797784 2108.781624 201 201 201
236.711216 411.828756 2112.815857 162 165 173
222.662687 77.860767 2138.504028 106 109 104
203.413630 -104.826236 2158.451080 101 109 102
232.740569 50.683677 2135.636520 49 43 38
494.211388 617.843151 1972.149277 122 125 133
236.870813 295.854616 2120.275879 245 242 239
236.870813 295.854616 2120.275879 245 242 239
236.610055 171.183968 2127.550507 189 192 200
236.610055 171.183968 2127.550507 189 192 200
266.950178 494.753838 2094.370842 102 95 96
232.955432 197.312963 2128.284073 146 146 146
232.955432 197.312963 2128.284073 146 146 146
209.748197 -94.503552 2156.420135 204 206 200
198.918581 -71.754795 2161.432648 97 103 102
230.306888 470.706272 2115.875626 107 99 100
491.083193 643.665409 1974.276543 139 142 150
263.655949 108.413482 2119.095421 77 74 60
185.960937 -138.421571 2172.532272 238 229 216
221.392560 -6.557317 2147.398758 220 222 216
251.818967 503.486204 2104.679298 156 155 155
234.969926 367.260981 2121.356964 193 193 193
234.969926 367.260981 2121.356964 193 193 193
483.901119 649.423122 1980.159187 180 183 191
219.722915 -13.277571 2151.762199 231 233 227
211.571097 6.965780 2155.186844 231 233 227
224.114037 166.135859 2140.189171 96 99 107
236.615515 187.586975 2133.181190 215 215 215
236.553955 377.201772 2122.770500 180 180 180
198.434401 -76.523864 2168.118286 105 111 110
241.909957 244.827127 2128.733253 169 169 169
241.909957 244.827127 2128.733253 169 169 169
249.971700 463.751078 2112.807274 93 85 86
239.050746 312.112498 2127.673340 99 99 99
244.325614 419.767189 2119.388008 175 175 175
242.666054 291.194677 2127.698517 238 232 230
236.497045 403.001070 2124.692917 180 186 185
231.549978 157.369781 2141.909981 44 47 55
177.258956 -127.896202 2185.654640 241 235 222
293.569517 530.656242 2089.932632 123 136 141
181.388950 -127.504253 2183.740616 241 235 222
241.681552 375.703645 2125.286293 174 172 177
276.682186 554.133558 2097.543144 99 111 117
190.206122 -111.231291 2178.861237 82 84 77
243.861175 444.424200 2121.397591 90 82 83
272.754622 107.049835 2126.184464 248 243 235
272.754622 107.049835 2126.184464 248 243 235
245.750546 449.312592 2121.323586 165 157 158
265.002871 122.491944 2129.627609 171 165 160
235.923553 58.965945 2148.298073 174 170 153
240.060139 64.844197 2145.943451 51 44 39
267.953205 534.204292 2106.100845 199 204 202
40.200311 -199.755561 2264.051628 67 59 47
226.133585 13.927926 2157.102585 176 178 172
193.472886 -135.917580 2182.525063 105 99 94
199.744117 -106.666756 2179.037094 76 83 80
227.898359 52.069771 2156.050110 156 163 162
242.952991 391.518116 2129.801750 86 86 86
227.496290 447.341108 2134.762764 170 162 163
206.058860 -53.784394 2173.794556 182 182 182
270.527864 116.825008 2131.697273 56 48 41
229.070830 74.461049 2156.930542 221 215 210
240.625596 37.651297 2153.506851 217 217 205
263.302374 130.697680 2136.855316 30 31 30
211.915612 -42.314631 2173.238373 192 192 192
542.455578 557.243872 1969.574547 185 188 196
240.032697 17.040738 2156.121063 235 235 235
245.391345 408.333588 2132.061005 112 111 111
219.181466 -15.280680 2168.987846 227 227 227
219.181466 -15.280680 2168.987846 227 227 227
514.663029 601.444674 1982.097816 182 185 193
243.219113 442.981958 2131.475830 116 108 109
256.850123 -496.229696 2175.898743 142 136 131
256.850123 -496.229696 2175.898743 142 136 131
267.693877 98.496318 2138.008499 107 98 85
9.343165 -427.254486 2300.980186 92 84 85
206.836128 -72.946620 2180.121040 157 163 162
239.657569 297.162938 2142.749023 101 101 101
247.823644 343.890142 2136.467743 163 166 174
231.493735 67.540193 2160.606956 229 229 229
508.774376 633.517504 1985.937119 137 140 148
226.414394 71.333534 2163.695145 149 143 138
517.099762 620.617294 1982.769394 176 179 187
249.643636 395.026350 2134.636688 149 149 149
32.788497 -210.799479 2281.181717 217 210 191
248.711348 483.195114 2131.043816 180 180 180
243.760157 356.987929 2140.734673 111 114 122
243.760157 356.987929 2140.734673 111 114 122
511.263323 627.869225 1986.777496 191 194 202
247.302604 456.733990 2133.666611 113 105 106
521.550226 595.757818 1983.996201 164 167 175
233.973002 192.720902 2156.330299 236 228 229
23.654047 -467.771530 2302.998352 99 91 92
212.052846 -627.408981 2213.884163 110 104 99
238.192153 255.866122 2153.011322 122 120 126
255.774450 308.764338 2141.192627 79 80 80
202.582479 -30.700696 2187.837410 217 217 217
-26.600057 -277.906990 2321.989822 87 80 61
252.382469 383.412194 2139.948463 95 95 96
253.644300 456.037855 2135.374260 86 79 80
-27.918226 -263.782382 2322.446060 109 102 83
249.219131 350.646806 2143.854904 83 86 94
192.407811 -126.234758 2200.511169 116 113 101
198.334253 -138.108325 2198.227310 212 205 191
192.549467 -152.754080 2202.168846 235 228 215
27.975196 -465.408993 2306.015015 32 24 25
241.881919 164.269948 2159.990692 129 129 129
223.690677 -624.920273 2212.974167 44 38 33
242.309070 329.478931 2151.128197 179 182 190
542.767000 550.180149 1981.368828 212 215 223
245.925736 425.814486 2144.754982 166 166 166
253.730822 482.560730 2138.210297 109 109 109
206.169105 -75.367802 2194.139862 179 179 179
203.746605 -108.930969 2197.387505 125 126 117
203.746605 -108.930969 2197.387505 125 126 117
236.491179 42.536041 2172.052383 243 240 226
193.188381 -139.756656 2205.581856 110 101 89
507.268667 677.031469 1995.549965 96 99 107
-26.746723 -288.985205 2329.767990 121 114 95
239.782977 199.134815 2162.713051 243 243 243
260.292792 432.847595 2139.132881 111 111 111
260.292792 432.847595 2139.132881 111 111 111
263.193846 476.311350 2136.217690 174 174 174
246.767020 319.029188 2153.691101 165 168 176
236.047435 6.327383 2176.844025 211 211 211
202.006078 -87.393355 2199.942589 238 238 238
238.809633 49.501598 2173.393059 207 201 196
531.225300 568.214560 1990.722656 26 38 44
235.572195 11.351494 2177.857971 150 150 150
250.195384 407.736635 2149.075890 86 86 86
197.961354 -150.011837 2208.015823 247 238 225
240.871024 258.326483 2163.344383 106 107 115
256.404710 498.987436 2141.977882 87 87 87
227.463412 146.919537 2176.836205 152 152 152
215.503097 -643.198442 2226.425362 128 122 117
212.495804 -126.150477 2200.318909 121 118 105
-20.002602 -248.461509 2331.018066 74 71 57
227.520204 -10.291503 2186.931419 226 232 231
41.390577 -201.993775 2296.434593 184 185 159
41.390577 -201.993775 2296.434593 184 185 159
242.835546 145.424032 2170.819283 152 152 152
238.608098 224.290681 2168.970680 222 223 231
242.118716 268.607473 2164.702606 186 189 197
259.482980 485.991907 2144.222641 102 102 103
234.060454 61.429864 2182.084274 163 163 163
236.053395 174.082148 2175.219154 150 155 154
527.197695 626.892614 1995.833206 188 191 199
239.307547 218.145967 2172.349930 191 201 208
252.051854 358.946729 2158.174706 182 194 200
51.902765 -196.005499 2295.549583 94 91 77
236.094046 71.057570 2182.818031 146 142 143
536.357355 605.761862 1994.003487 170 173 181
223.734474 -16.123305 2195.482445 231 231 231
270.406318 81.174785 2165.710449 231 220 213
201.763844 -133.300614 2214.103127 137 126 102
202.206993 -139.263618 2214.229965 217 212 186
258.544064 452.505207 2152.100563 129 131 139
249.483824 317.422104 2164.945602 98 110 116
-61.101329 -246.592593 2363.215446 74 68 63
261.382747 508.125019 2149.359131 72 84 90
252.154946 426.261902 2158.795738 166 179 185
251.721740 329.553866 2164.339828 178 198 204
214.548254 -50.074881 2205.663109 194 194 194
254.549408 417.847919 2160.005188 183 192 199
245.325303 319.862533 2170.548439 165 181 193
245.383239 222.461605 2176.510048 181 193 199
233.341265 16.630703 2194.321060 111 111 111
241.700411 130.516839 2184.172630 18 18 18
241.700411 130.516839 2184.172630 18 18 18
256.481481 374.120235 2163.186646 166 178 184
229.411745 -0.408413 2198.796272 229 229 229
237.754440 56.648856 2191.262627 73 73 73
248.185706 328.773022 2171.354866 94 103 116
522.361135 676.535606 2006.436348 158 161 169
237.707090 15.319756 2195.938683 193 193 193
237.707090 15.319756 2195.938683 193 193 193
205.145311 -144.571626 2222.756767 237 221 204
253.313518 458.945799 2165.770721 85 102 107
253.313518 458.945799 2165.770721 85 102 107
527.591276 655.649233 2006.997681 90 102 108
254.068971 426.691484 2167.634773 182 194 200
198.528337 -641.995955 2255.515099 43 37 32
241.442347 243.392992 2184.625053 110 122 128
539.287090 615.532732 2003.714752 93 100 107
250.195718 45.372030 2191.439247 74 71 57
261.552334 458.262491 2162.856483 75 92 97
264.430046 536.876535 2157.214546 65 70 70
234.255815 -39.020869 2204.882622 237 237 237
200.556016 -140.639091 2228.762817 233 217 200
260.109472 495.318174 2162.572670 101 113 119
257.103658 364.654207 2171.299362 179 191 197
257.103658 364.654207 2171.299362 179 191 197
208.187175 -114.483106 2223.868370 63 58 49
214.988017 -56.911737 2217.520714 127 127 127
214.988017 -56.911737 2217.520714 127 127 127
260.700822 83.654743 2185.480690 244 235 231
258.209085 355.260634 2172.316360 162 171 184
242.895865 296.926475 2184.274673 78 90 96
237.757421 5.520932 2203.035545 200 200 200
257.436919 376.637959 2173.098183 57 69 75
262.162304 74.483144 2187.117958 41 29 26
234.563065 -32.605520 2207.982445 226 227 228
254.018402 279.601026 2180.442429 92 95 103
250.957417 275.857329 2182.450294 81 87 95
223.616886 -16.865596 2213.979721 149 152 152
260.443163 450.707150 2168.813515 211 215 222
231.791067 -3.471567 2209.221840 212 212 212
248.684597 416.425753 2177.325821 84 87 95
523.417807 677.391291 2014.414024 139 142 150
193.161821 -123.108375 2238.367271 84 75 62
252.729821 202.188778 2188.439369 67 70 62
232.412004 9.047693 2210.194397 116 116 116
218.313456 -79.766345 2223.018837 226 226 226
545.619917 620.969343 2006.714439 139 151 157
261.784315 429.927111 2171.951294 181 193 199
260.956454 85.880440 2191.502571 238 229 229
215.248013 -86.685050 2226.238251 199 205 204
565.870523 559.867144 2000.378036 172 181 194
247.333527 205.013728 2193.771172 135 138 130
249.501228 42.100659 2201.687622 190 191 185
249.501228 42.100659 2201.687622 190 191 185
285.794234 535.649395 2155.761528 175 182 195
247.212625 226.070499 2194.017792 162 165 173
257.618284 88.198221 2196.157646 24 16 17
228.727078 -30.894595 2218.425941 194 197 205
265.886664 504.177380 2169.302559 76 76 84
273.120594 508.284616 2165.913963 132 135 143
202.060103 -152.978599 2241.093254 106 93 84
267.014861 472.444630 2171.779251 186 189 197
250.143504 290.424418 2191.937637 151 163 169
233.473301 -39.058086 2219.447517 191 191 191
165.293241 -171.503794 2264.189148 221 211 198
269.662404 511.888409 2170.426178 162 165 173
266.054225 452.565384 2176.000404 161 161 161
248.243737 22.239006 2209.177971 108 108 109
243.431044 -59.812051 2216.409302 202 206 206
208.645988 -85.296869 2237.174606 135 141 140
224.550986 -21.855572 2224.995422 176 182 181
263.792682 517.324209 2174.723816 83 86 94
255.468655 296.791744 2193.553352 73 85 91
-115.501964 -402.974796 2436.180687 10 10 10
260.997486 338.248134 2189.268875 88 95 102
255.015206 226.139212 2198.946381 71 74 79
255.015206 226.139212 2198.946381 71 74 79
249.214077 250.534797 2201.240349 161 173 179
188.031912 -153.989601 2257.135963 121 112 99
265.206981 203.021407 2195.332527 24 21 15
251.162362 329.178882 2196.687508 96 106 111
243.909836 22.580548 2217.821312 178 181 189
223.074007 -60.672194 2234.212875 196 202 201
278.806400 144.647908 2192.923927 54 54 48
279.861879 556.477499 2170.219803 54 66 72
253.197527 292.099428 2199.615288 187 190 198
265.676594 542.828083 2179.736328 167 174 187
203.610182 -126.286900 2250.351334 166 159 151
254.345727 324.218917 2198.045921 97 100 107
250.174737 81.771803 2213.569260 26 26 25
226.219130 -41.093582 2233.921814 181 182 181
268.077826 188.868070 2199.062347 50 44 39
252.900505 314.193511 2201.359177 100 103 111
261.224294 45.287850 2211.794662 127 124 110
248.292923 528.059816 2193.287849 180 192 198
231.857967 -34.096798 2233.001518 196 200 205
262.493610 530.563116 2185.654068 55 62 69
