ply
format ascii 1.0
element vertex 1070
property float x
property float y
property float z
property uchar red
property uchar green
property uchar blue
end_header
-311.982799 372.918606 1539.991188 144 143 135
-317.729068 444.807863 1516.738129 255 255 254
-318.573117 427.882719 1524.759102 159 152 114
-304.308844 370.309496 1544.519424 64 67 66
-298.811269 391.694975 1535.076141 181 177 162
-308.820057 251.624894 1599.017906 255 255 255
-273.005033 303.414559 1563.540745 81 85 60
-301.176858 414.400959 1529.924870 65 65 41
-289.079237 367.504287 1544.748116 133 128 105
-289.079237 367.504287 1544.748116 133 128 105
-280.500054 349.264431 1558.225822 154 150 102
-257.786560 362.740541 1558.757877 73 74 50
-229.611278 310.580683 1569.313049 148 156 111
-470.245266 -42.845085 1837.482834 110 94 52
-280.902958 346.984768 1587.795544 150 148 105
-244.122219 362.780929 1564.379692 71 73 45
-229.483676 374.014187 1562.182522 142 136 92
-237.635303 540.585899 1495.006466 208 198 160
-232.726192 550.984001 1489.814949 135 130 124
-461.117363 -41.107026 1862.328339 78 61 36
-469.669867 -36.272153 1867.578506 254 255 255
-221.027255 563.496208 1484.451580 178 180 182
-466.458654 -57.610190 1877.886009 69 64 39
-224.534488 539.904881 1497.562504 136 131 135
-224.534488 539.904881 1497.562504 136 131 135
-442.216253 -69.448274 1872.616386 92 78 36
-220.620728 557.117510 1489.783287 123 122 126
-454.154301 -39.025527 1870.463753 131 111 70
-217.641854 384.293509 1568.214798 71 71 47
-226.290369 412.232637 1562.673855 159 156 116
-226.290369 412.232637 1562.673855 159 156 116
-203.748322 375.305700 1569.853115 164 154 104
-451.800299 -134.076142 1921.442223 255 255 255
-466.303158 -49.221185 1891.482162 242 242 243
-222.654462 426.471949 1563.569736 157 149 118
-435.828114 -97.020704 1903.953934 172 165 84
-457.791519 -42.563462 1892.077065 66 54 47
-434.612989 -88.988984 1902.103043 97 82 33
-458.438921 -35.681984 1892.755318 230 228 233
-201.180768 393.650842 1575.197601 158 147 99
-176.292706 376.171231 1572.952557 166 160 96
-435.948801 -113.013196 1928.369522 130 120 54
-429.105854 -91.398203 1917.535019 158 141 64
-427.041292 -96.562320 1919.141579 163 152 72
-165.130556 591.219330 1479.955292 157 156 160
-189.202213 423.594618 1568.381977 118 111 69
-163.987088 599.877977 1477.164173 143 149 162
-423.513937 -111.243057 1935.022354 172 159 82
-422.143459 -96.848512 1929.655457 90 79 32
-181.570983 408.436108 1576.465702 178 173 119
-172.085321 413.395262 1572.580147 183 179 127
-151.823068 376.511979 1582.094860 151 143 92
-133.150911 365.865183 1585.847950 65 68 42
-106.318557 311.954427 1596.606827 163 166 126
-442.207241 90.633684 1881.239700 255 255 255
-408.282566 -133.064640 1967.743301 161 145 80
-151.307261 428.579235 1576.108456 171 164 109
-132.129037 376.721764 1590.213966 138 133 88
-109.481001 340.930080 1599.682331 56 58 32
-397.022176 -46.212226 1936.586380 255 255 255
-117.771125 540.743446 1519.598198 197 201 205
-117.392027 527.581024 1529.489040 166 167 170
-106.503987 571.685266 1505.331421 199 208 213
-121.459091 430.302238 1580.127811 167 171 110
-106.673598 527.977180 1531.140709 141 142 148
-89.045358 378.179908 1591.740704 128 129 86
-87.510318 491.185665 1540.527630 217 206 167
-100.081384 524.009037 1534.227467 150 150 153
-86.071205 593.569660 1497.117233 149 151 162
-312.407637 19.131123 1898.843193 255 255 255
-91.733783 535.051250 1531.034088 195 206 216
-82.895142 555.606174 1519.693089 163 161 165
-85.144699 402.773952 1595.116615 115 116 57
-50.535244 368.967080 1592.284107 74 75 44
-77.541959 569.548988 1513.043213 135 138 148
-82.878292 399.734259 1596.526527 181 180 125
-205.796719 -80.463266 1895.779228 143 125 78
-78.292060 428.794241 1582.596874 121 123 69
-291.182852 15.893957 1902.638817 27 20 9
25.636080 700.390625 1394.971085 216 208 196
29.465675 701.709938 1395.410347 140 136 117
-39.594886 360.828066 1600.133514 193 189 138
-269.353485 32.591176 1900.745773 86 76 72
-269.353485 32.591176 1900.745773 86 76 72
-218.650413 -177.248144 1972.735405 110 101 58
-60.634869 403.507566 1601.148033 114 114 51
-60.634869 403.507566 1601.148033 114 114 51
-154.175448 -14.646442 1862.856293 20 17 15
-225.816870 40.114018 1879.407692 50 44 43
-139.191902 16.821647 1848.434830 119 108 67
-204.524708 -192.955387 1991.079903 150 138 98
-8.396088 378.262210 1596.823025 201 199 190
-32.668364 431.763840 1586.305428 181 178 172
-9.382553 375.364971 1599.780655 30 28 23
3.998694 376.299763 1597.705555 175 165 114
6.407660 564.862013 1504.732704 182 182 181
-198.042154 -181.441474 1994.929504 156 152 89
-18.843597 442.057753 1581.373119 141 143 125
7.379957 557.283974 1509.894085 201 200 199
-144.002974 -64.041364 1907.298851 169 163 121
-107.614315 30.987227 1839.438438 132 114 72
-17.221005 461.115932 1573.764610 198 194 184
-305.957079 -394.198394 2169.210052 27 20 13
-5.829927 415.630627 1590.260029 162 156 104
-186.125612 -159.660327 1984.690666 52 49 24
6.326339 381.526828 1601.626587 67 61 32
12.494061 378.734493 1602.326584 191 179 131
0.198888 511.387014 1545.449257 213 209 206
-190.189242 -225.326300 2025.669479 37 34 23
-289.426851 -398.012090 2174.681664 147 128 85
44.639236 301.670361 1624.011993 169 169 165
-1.063522 480.259037 1564.554882 206 202 197
-101.085520 41.868219 1842.633438 92 77 42
-192.666864 -222.273636 2029.915619 42 37 29
17.315646 566.681337 1511.236382 66 66 58
-2.636294 435.518980 1588.535118 175 168 141
21.173395 556.755877 1514.024639 189 190 191
-188.754237 -219.070745 2027.709579 42 37 29
-3.752099 459.770012 1578.799629 196 192 183
-122.167218 -51.442409 1905.353928 188 182 117
-122.167218 -51.442409 1905.353928 188 182 117
-0.077725 427.554417 1593.275738 180 172 129
1.081046 474.514866 1570.380592 154 147 137
-274.346375 -361.342859 2155.818558 162 143 95
-106.049728 -25.254890 1885.208511 38 30 27
-108.447909 -34.344146 1893.712807 62 54 16
10.840874 590.429258 1509.811401 72 76 67
3.291050 432.153988 1593.052101 123 115 83
-261.742997 -389.380574 2166.089249 42 34 20
7.416777 496.738958 1558.552074 103 100 82
-109.907699 -20.507146 1888.769341 76 62 43
22.420751 345.328093 1624.624825 55 56 40
16.583148 572.035122 1516.888714 79 85 82
6.156537 425.429010 1596.523190 78 79 48
57.650834 712.492180 1421.825504 169 167 162
-180.621648 -185.970962 2017.891693 161 146 85
-104.433763 -29.550380 1893.947983 179 167 93
-252.965927 -367.659497 2155.605125 68 55 24
-180.356777 -171.958435 2013.318634 176 157 92
-180.356777 -171.958435 2013.318634 176 157 92
-183.452964 -237.902474 2048.547554 187 175 110
19.176279 398.924875 1604.252434 89 84 64
-173.722732 -150.382650 1999.104691 75 73 40
15.668002 537.502670 1537.628937 174 174 162
12.247168 580.346251 1519.095421 140 138 136
-250.370765 -360.453343 2154.345894 177 158 109
4.498038 504.106951 1563.158512 179 173 166
17.627887 410.567808 1601.917458 95 87 52
48.032153 306.984758 1635.210037 141 139 139
5.823359 516.581678 1557.533360 159 156 149
-176.203883 -159.668589 2010.907555 66 65 28
-173.282003 -210.595679 2034.949875 100 88 39
5.450952 521.160030 1556.571484 159 158 155
5.450952 521.160030 1556.571484 159 158 155
13.240191 418.984413 1602.977943 125 121 91
2.507129 436.836958 1601.097488 66 73 81
2.507129 436.836958 1601.097488 66 73 81
-95.175970 13.728558 1874.461937 103 87 42
16.617554 413.908672 1604.714584 131 126 93
-169.640124 -167.166829 2013.906097 61 54 27
29.358977 373.574138 1617.335510 73 75 57
-115.977836 -40.348750 1916.718292 175 168 94
-255.964279 -403.682470 2187.520981 99 81 51
-23.234940 283.329868 1696.816826 172 178 119
-93.061769 10.895577 1879.207230 159 134 81
-91.933042 38.429284 1864.726067 98 77 32
-93.307316 33.490330 1868.275833 152 134 73
-160.989690 -145.859706 2001.549339 150 138 78
-173.458564 -232.944059 2053.911209 62 52 17
19.129048 400.161839 1613.875771 36 33 17
-96.029896 -16.691704 1897.377205 119 110 66
-255.714107 -395.898128 2189.848328 51 39 25
-131.850171 -64.406711 1944.760513 185 180 106
1.865035 486.610365 1583.559227 180 178 167
-186.790287 -251.277089 2075.277901 119 104 48
-92.660910 24.449930 1877.234459 153 128 75
-95.709437 -12.682076 1898.320770 30 27 23
-16.448662 290.398502 1695.418930 104 121 66
7.179258 431.636143 1609.736824 36 39 47
19.910616 402.287626 1616.720581 185 181 174
0.804672 451.993132 1604.188538 65 67 75
12.842202 569.179535 1537.588024 103 106 107
-89.047247 54.604322 1863.310814 162 141 83
-89.047247 54.604322 1863.310814 162 141 83
-234.094906 -349.845719 2160.626793 67 54 29
-95.208067 20.135003 1885.643578 59 50 29
-95.208067 20.135003 1885.643578 59 50 29
-89.327455 166.596568 1808.346558 145 122 61
-245.228791 -374.902773 2182.679176 125 103 59
-119.926453 -44.337112 1936.977768 178 164 99
7.066139 432.695723 1615.837288 115 120 130
-78.182054 148.577142 1815.183830 194 178 124
-156.938469 -130.228221 2007.358170 126 118 69
43.988159 316.963768 1651.292229 131 131 126
-82.372767 178.326011 1803.548622 124 108 48
-92.350745 34.157690 1883.181190 115 98 59
20.696004 407.925987 1621.462631 188 183 174
-244.693875 -367.542624 2186.906242 41 34 19
23.075761 420.618248 1614.876938 137 145 158
-95.385230 -16.312404 1913.085556 75 62 29
-91.869724 23.039967 1891.168022 120 103 64
-91.869724 23.039967 1891.168022 120 103 64
-148.825729 -115.384758 1998.668861 49 40 33
-94.140786 -9.075367 1909.596443 32 31 25
6.533013 437.185574 1618.782234 129 130 141
7.405882 432.039309 1621.981621 119 124 136
-13.721687 293.919563 1705.996323 96 115 52
-143.700266 -100.089586 1991.770744 78 71 44
19.000953 393.690515 1635.174370 25 28 28
-108.101940 -35.327268 1936.779404 117 106 63
7.376544 435.509539 1622.371292 50 55 68
-240.007806 -350.124407 2183.478928 66 51 34
6.670606 440.581608 1620.603752 61 68 81
-242.707658 -382.877278 2205.800438 29 23 19
-121.286643 -53.295457 1958.613014 41 37 16
-24.724901 248.601341 1741.938591 45 46 26
-143.239951 -116.652453 2007.950401 39 34 28
-70.449603 184.692311 1807.215500 104 90 30
19.721459 418.640280 1629.944801 49 53 56
-90.072411 -2.636090 1917.627716 70 58 31
-61.337107 198.808265 1796.302032 91 77 32
-241.199994 380.016994 1824.106979 134 129 96
-241.199994 380.016994 1824.106979 134 129 96
-93.675196 8.112778 1917.009735 21 16 17
-213.459158 -430.636835 2222.993660 107 98 44
-98.489523 30.101937 1911.179543 21 17 18
-98.489523 30.101937 1911.179543 21 17 18
20.243065 393.142962 1646.983528 162 154 91
-12.423094 298.066759 1719.275665 146 157 88
-128.099763 -71.668732 1986.904335 172 162 91
-131.766677 -98.119748 2003.610229 31 26 22
-93.344796 20.824005 1917.361832 88 74 54
-115.517986 -54.218912 1970.887184 140 128 75
-116.979992 -47.820967 1968.774033 15 13 11
-11.735375 302.428341 1719.955063 61 62 27
15.618187 404.797697 1649.189377 126 128 107
-94.325352 12.397739 1926.016808 22 18 18
-9.386905 303.863001 1719.827843 83 88 44
17.105083 392.236567 1657.580948 172 167 100
-51.421493 211.478996 1797.318459 158 139 69
-94.907665 20.303977 1925.389290 15 14 13
-52.433485 204.487872 1802.085304 41 32 26
-213.223791 -422.664165 2233.544159 135 121 53
16.186991 402.375174 1654.370308 36 36 35
-127.799666 -100.400913 2011.004639 31 26 17
-21.763436 265.583611 1751.543808 34 30 26
-12.637395 288.247252 1734.291267 144 149 88
-13.205038 279.055929 1739.439774 156 159 108
-90.750510 12.123605 1930.797386 123 104 54
-105.586278 -7.986235 1953.031921 144 128 77
-105.730093 39.612249 1929.602051 88 83 60
-96.156877 23.476993 1932.502747 121 108 52
-96.156877 23.476993 1932.502747 121 108 52
16.774714 398.651147 1661.899948 157 151 105
13.351451 407.059193 1660.369492 127 130 132
-110.079849 53.340250 1929.951859 60 57 44
-25.193736 270.021081 1760.132790 53 42 30
-125.109351 -247.298670 2096.738434 181 173 101
38.377261 337.374663 1682.334709 107 114 101
-99.823296 18.318541 1943.363571 23 19 19
-54.090232 208.029532 1814.391518 115 97 67
-105.691636 -6.224044 1961.201668 34 28 23
-46.437675 220.652056 1803.221893 32 27 11
-115.870655 -87.698489 2011.528587 140 129 67
-65.510547 179.160643 1838.286209 170 156 93
-53.587061 213.744044 1814.730644 55 46 30
-16.392815 466.999340 1657.415581 110 107 109
-99.291456 -110.124528 2020.984077 99 95 47
-109.277081 -60.081953 2002.388191 28 24 22
-109.393883 -18.407813 1982.300949 12 10 10
-105.251288 -70.719886 2015.065384 63 63 33
-97.126985 -81.394857 2016.028023 109 107 50
-92.004412 -109.478676 2027.715874 16 14 11
-98.295265 -38.435200 1996.461105 17 15 14
-106.141424 -134.254122 2052.512169 59 50 30
-223.675895 -378.871775 2265.859032 110 96 49
-117.810965 -211.750317 2104.718018 76 68 35
-124.553967 -191.182005 2099.062157 41 38 19
-124.553967 -191.182005 2099.062157 41 38 19
-97.768837 -87.378830 2026.594353 36 29 21
-92.066860 -21.407309 1988.154602 153 134 83
-124.484503 -246.698356 2131.462479 176 171 100
-104.548776 -145.628810 2066.079521 42 33 19
-18.463752 309.046817 1766.974068 65 60 37
-91.862208 -112.050712 2045.558929 87 72 44
-18.159664 327.439189 1760.100174 73 72 37
-113.525879 -166.526878 2089.927292 21 17 13
-131.603074 50.887144 1989.036369 58 58 42
-17.993413 331.773090 1761.237335 56 55 28
-17.993413 331.773090 1761.237335 56 55 28
27.003619 364.458799 1713.443565 48 57 46
36.770681 360.417318 1710.418129 101 108 89
-78.829819 -56.723857 2015.453529 117 104 72
-116.333580 -233.143926 2137.197876 90 82 43
-19.931094 332.990384 1766.946602 144 149 85
31.019881 370.100427 1712.123489 86 94 86
-128.472805 69.216603 1987.302971 71 60 31
-73.579258 -93.767309 2035.448074 57 49 37
-73.579258 -93.767309 2035.448074 57 49 37
-70.935303 -5.413488 1988.503075 173 145 97
-74.429756 -129.240012 2061.881065 192 179 113
-114.802194 -236.466050 2148.986244 113 104 55
-90.431541 -154.322410 2089.664650 146 122 60
-103.938258 33.712882 1998.163795 14 13 11
-96.516323 -194.179153 2117.131805 125 119 64
-65.452427 -96.568269 2042.273521 173 163 115
-98.971123 -168.528652 2105.208015 59 52 25
-94.299060 -166.223133 2101.222229 59 52 25
-25.713229 493.284416 1697.703362 122 119 123
-124.856710 105.848742 1978.168106 98 93 58
-124.856710 105.848742 1978.168106 98 93 58
-68.552786 19.519626 1985.530281 130 113 72
-281.058693 205.654979 2040.628624 24 19 18
-57.940626 -91.501194 2042.406464 57 51 45
-57.940626 -91.501194 2042.406464 57 51 45
-72.786868 -130.790031 2075.074768 165 143 89
-49.320871 -55.635053 2017.556953 182 171 104
-73.519033 30.727598 1988.875771 16 14 14
-68.292052 -120.208061 2068.609428 56 47 32
-91.392183 -226.618075 2143.446732 184 175 114
-29.497796 319.765902 1805.144501 126 141 116
-33.081666 313.881540 1811.771202 34 30 29
-2.515759 444.152737 1720.761299 99 100 98
-261.494255 206.473780 2042.988014 255 255 255
-29.131672 349.483943 1796.175766 102 121 38
29.818043 377.818418 1738.062477 95 105 79
29.818043 377.818418 1738.062477 95 105 79
-39.590573 -60.013276 2028.577423 176 167 99
-57.726085 -12.799589 2016.481400 50 48 37
-115.800107 166.918325 1962.033081 91 89 63
-24.757475 480.156136 1724.109840 117 119 106
-24.757475 480.156136 1724.109840 117 119 106
-36.330700 -49.350742 2024.819565 127 133 79
-47.243142 -81.732631 2051.394463 150 133 76
-37.301955 323.893404 1823.247528 133 139 89
-72.694427 52.056235 1998.575020 116 101 74
-63.343138 32.576028 2003.202057 24 20 18
-67.628413 53.221118 1995.958900 93 79 60
-50.141305 22.206052 2000.557709 16 14 14
-36.215639 -51.681060 2031.006241 98 90 53
-35.636914 322.913980 1828.084946 79 77 64
-49.895844 18.510509 2007.705498 137 127 95
-231.283855 210.851073 2039.258194 255 255 255
-85.359311 64.763939 2013.453674 72 63 53
-33.563703 528.333902 1719.757462 117 120 127
-33.563703 528.333902 1719.757462 117 120 127
-62.649459 -213.482118 2151.952744 58 54 20
-56.226426 -124.954665 2107.423210 146 124 68
-56.392598 -197.639239 2148.627853 155 138 80
-23.442048 718.487310 1615.150452 182 178 178
-117.352653 147.676909 2003.421211 122 109 85
-35.630724 -34.547815 2044.256020 141 142 108
-67.321146 -111.083031 2118.484306 48 44 25
-53.558218 -71.865731 2091.611671 101 91 58
-58.540100 -74.553627 2099.059486 128 119 77
-125.691485 115.489233 2048.833275 44 40 34
-120.296657 150.669229 2028.338242 23 18 19
-126.383615 118.905151 2054.202843 114 101 67
-5.640423 449.395561 1775.423431 144 141 111
-129.101586 128.833055 2054.690742 49 40 35
-46.347573 -210.043454 2183.043671 132 129 55
-48.322359 -146.279395 2153.380203 95 83 48
-47.381377 -134.477115 2153.689003 172 153 91
-47.969359 356.713057 1878.828812 102 100 69
-36.067113 540.180349 1765.632820 108 112 118
-29.490364 -158.868158 2159.856987 151 131 70
-38.708344 391.321754 1855.096054 89 102 38
-38.708344 391.321754 1855.096054 89 102 38
-41.277114 -200.015903 2195.596886 121 110 60
-41.009316 -178.979933 2186.414719 161 143 74
-38.735700 -189.766312 2194.024277 129 121 61
-32.399094 408.723116 1854.252434 170 170 124
-34.647802 525.290585 1789.937019 118 120 107
-128.996313 291.083217 2001.144409 255 255 255
-35.510051 522.661448 1797.497368 147 142 123
-45.712095 563.910913 1783.880806 174 172 171
-7.343867 495.768738 1792.560005 85 88 65
-39.632890 557.454538 1790.898895 93 98 57
-39.632890 557.454538 1790.898895 93 98 57
-36.971274 533.631086 1802.908897 112 112 62
-15.361860 479.526043 1819.470215 133 127 73
-44.526711 569.908857 1811.502647 105 109 70
-38.938990 547.349930 1831.377792 142 137 108
-60.197818 405.562925 1943.885612 154 159 108
-38.553151 547.873878 1847.632980 77 74 42
-34.316003 509.761477 1879.662323 75 71 33
10.141712 460.072422 1871.193123 55 55 49
-57.139641 449.816132 1943.866730 254 254 254
-51.657778 454.814386 1936.139870 120 127 69
-37.177256 554.275513 1868.935013 66 68 51
-35.356417 554.389668 1869.631386 68 69 49
-42.945093 570.376158 1870.434189 137 138 136
-37.831730 601.925898 1859.111977 23 23 27
-51.870847 612.324905 1865.565300 133 135 145
-32.445154 702.828360 1792.930222 193 189 188
-32.779726 578.191710 1872.173691 140 144 139
-46.244502 622.971296 1860.148811 52 53 58
-47.386038 663.684654 1837.320518 152 155 158
-44.632950 457.680893 1962.796211 255 255 255
-38.070658 602.230835 1867.671394 125 128 143
-31.074047 714.549685 1793.980789 81 89 91
-52.959269 638.189650 1863.384247 100 102 104
-46.536648 626.209021 1867.350578 128 130 134
-16.626774 825.395203 1716.425705 180 176 177
-16.626774 825.395203 1716.425705 180 176 177
-28.999493 747.659922 1778.505516 70 76 86
-30.332103 746.211147 1784.152603 133 133 135
-16.199833 843.172359 1711.627007 125 127 130
-33.986220 756.661510 1782.434464 133 133 136
-39.740968 606.824255 1882.404137 33 32 36
-24.089082 557.744932 1899.754333 167 165 158
-26.613998 595.620632 1880.822754 153 152 150
-29.076836 571.374702 1898.619080 75 76 76
-37.096196 757.451391 1796.100235 59 59 66
-24.962938 583.539486 1895.847130 175 175 171
-29.405305 571.396780 1909.809685 49 49 49
-33.572102 754.154730 1799.788094 114 114 121
-46.823215 553.760672 1944.622231 68 63 45
-40.448460 734.121943 1823.847771 255 255 255
-41.810262 527.184963 1958.277893 123 120 104
-41.810262 527.184963 1958.277893 123 120 104
-35.617656 572.139883 1925.470924 133 123 116
-35.174483 576.834917 1927.884102 142 133 132
-118.986058 865.144730 1828.548431 117 127 145
-22.939841 533.903408 1978.518677 134 130 129
-21.645443 545.640755 1979.685020 247 246 236
-18.286140 550.596285 1974.544716 255 255 254
-23.510942 537.904024 1998.329544 69 68 73
-23.510942 537.904024 1998.329544 69 68 73
-251.152849 479.241705 1355.410767 138 113 98
-251.152849 479.241705 1355.410767 138 113 98
-294.784403 534.628582 1406.026745 171 178 191
-326.261353 297.203612 1537.022305 164 164 159
-275.148320 299.020100 1545.739555 150 150 106
-227.990127 524.756432 1497.156811 139 136 123
-220.037007 534.840965 1492.925358 200 207 206
-222.434020 524.351454 1500.139427 212 209 187
-234.574437 422.865486 1553.420162 81 84 53
-446.920872 -36.592102 1854.751015 87 74 49
-209.219003 569.447184 1476.375961 131 129 134
-209.219003 569.447184 1476.375961 131 129 134
-199.740362 571.799278 1477.173233 215 201 178
-218.847585 427.208900 1555.404282 150 151 100
-447.980881 -31.174201 1865.145874 93 79 58
-426.012278 -88.869053 1887.376022 131 116 57
-192.612886 573.998022 1478.208828 138 131 128
-453.992367 -54.207182 1886.698341 64 48 33
-192.061484 424.454546 1559.551048 100 97 66
-150.155485 366.376972 1575.030804 82 82 46
-415.217876 -86.530179 1909.580803 160 143 68
-165.590358 401.026154 1574.576759 134 129 76
-142.738402 377.702022 1577.826500 155 144 94
-149.365139 387.052417 1578.331470 89 91 52
-410.904074 -92.897302 1923.120117 91 77 34
-221.786523 -128.949344 1918.943787 157 147 103
0.479244 407.486677 1588.686466 81 84 42
-108.379292 -1.023749 1863.914490 184 168 110
42.193073 327.808118 1619.003677 60 64 52
19.412918 345.468283 1626.020432 57 54 29
-178.557575 -150.160134 1986.944580 176 169 106
-288.191438 -257.457805 2099.793243 91 80 30
5.305454 432.524395 1591.876411 125 114 78
-102.326238 -18.658876 1888.838577 38 30 24
-170.030010 -153.743100 1996.627235 117 108 57
19.035293 578.825617 1513.787270 93 98 87
19.035293 578.825617 1513.787270 93 98 87
-98.908496 -17.453732 1891.547775 134 117 70
-98.908496 -17.453732 1891.547775 134 117 70
5.313363 430.715656 1600.893021 51 56 59
20.317023 410.134411 1604.645538 166 157 114
20.573241 402.196503 1609.109688 176 167 138
-92.036664 51.216352 1853.187943 172 146 84
-92.036664 51.216352 1853.187943 172 146 84
-92.036664 51.216352 1853.187943 172 146 84
6.207613 433.983421 1599.874496 65 67 72
19.193725 406.467199 1609.355164 63 59 47
-100.783181 -13.251357 1895.671463 22 18 18
-96.165162 10.279208 1881.099129 161 136 83
21.590310 565.980530 1524.140072 184 180 179
2.879358 484.538031 1580.038738 107 107 83
8.142626 427.963591 1607.945061 58 65 73
3.354586 452.988625 1597.795677 172 169 170
-92.737031 38.890639 1870.520592 151 130 73
-243.427634 -362.745762 2166.184616 130 110 64
-110.724354 -31.203464 1924.728966 122 106 58
-152.181697 -109.798789 1989.565468 174 163 93
3.303012 478.502417 1592.184067 133 131 133
-86.790508 61.185366 1868.315887 165 143 91
9.923776 523.586226 1573.306847 190 188 185
-93.842477 4.362399 1912.499237 23 18 18
7.322672 457.857323 1612.636185 117 118 119
-51.107353 208.113241 1785.177231 176 158 87
-101.187134 46.243235 1901.333618 106 92 68
-12.855664 276.609516 1731.995010 160 167 115
23.009838 393.749738 1650.212479 89 83 32
17.564170 401.833153 1648.785400 149 149 115
-129.581368 -72.360855 1988.113022 176 166 94
-9.400377 431.094027 1650.015450 89 93 93
17.597023 400.542116 1657.186508 136 125 73
-54.449743 199.851000 1814.006996 48 38 23
-16.813533 286.743021 1750.442696 146 153 87
-63.811278 183.707523 1833.583641 125 107 55
-110.805547 -143.655908 2053.847313 95 79 41
-110.805547 -143.655908 2053.847313 95 79 41
-125.517428 -184.458601 2090.353394 31 26 20
-125.517428 -184.458601 2090.353394 31 26 20
-128.829360 -193.599701 2102.865028 46 40 23
-19.296932 310.672092 1762.604141 169 167 91
-18.138391 334.233785 1757.231140 148 156 105
-21.011707 331.676340 1762.996864 55 52 29
-78.014916 -65.022403 2027.845001 49 45 21
-70.670784 -90.090269 2042.101669 109 113 100
-82.146466 -132.675660 2075.679970 67 58 31
-135.217071 67.058480 1992.431259 78 60 36
-85.879928 -141.336238 2091.083336 63 54 36
26.385647 381.037784 1729.903221 87 93 83
-62.271595 -27.468240 2025.821877 73 73 63
-62.271595 -27.468240 2025.821877 73 73 63
-66.831058 -157.826400 2109.948349 106 91 45
-49.743807 -77.243710 2054.310989 129 115 69
-59.874171 -4.347209 2017.739487 53 45 40
-0.402747 444.354343 1719.352341 100 101 99
-56.712449 7.282219 2009.428024 70 61 43
-61.197156 -11.421350 2023.396873 81 76 68
-133.342552 135.774910 1983.155251 21 17 15
-125.629079 130.831814 1989.144135 97 81 43
-125.629079 130.831814 1989.144135 97 81 43
-65.025896 -195.167685 2146.758461 114 103 47
22.378653 392.112970 1752.323341 47 56 40
-123.899484 148.802328 1996.700478 54 44 36
-257.142949 200.330424 2048.227119 32 26 26
-20.715147 705.697584 1604.535484 137 126 127
-20.715147 705.697584 1604.535484 137 126 127
-62.017125 -88.741922 2109.494400 117 108 66
-235.227323 192.135704 2051.141357 25 20 19
-52.198148 -163.098836 2151.996422 151 131 75
-6.113236 463.323545 1750.128746 100 103 104
-33.966026 520.713615 1739.060020 107 111 111
-33.966026 520.713615 1739.060020 107 111 111
-131.051314 108.389533 2049.894142 73 84 80
-45.838621 -183.906651 2176.656532 82 67 40
-24.157715 716.546631 1619.315720 125 120 121
-23.398173 721.425104 1616.295433 139 130 134
-23.398173 721.425104 1616.295433 139 130 134
-46.849120 -188.952029 2186.408806 81 65 26
-277.889752 302.038455 2062.462234 112 105 72
-68.711340 -149.968052 2206.903267 107 88 45
-40.962654 391.124177 1856.662178 91 104 41
-49.898225 557.777691 1791.661453 158 158 152
-49.684462 562.553310 1788.524055 174 172 171
1.119118 458.935022 1824.312019 125 125 106
-50.258815 557.608366 1798.023033 97 101 57
5.071462 449.454403 1849.998283 91 98 83
-46.493807 549.852991 1835.987473 167 163 147
-49.635682 564.692879 1868.079948 81 84 81
-48.323876 579.724026 1857.509613 111 114 110
-44.986719 585.089302 1862.625694 136 142 151
-42.506033 595.131969 1864.988708 31 32 41
-47.540388 625.545025 1855.213165 108 111 116
-35.522828 582.522678 1877.244949 151 154 147
-35.380211 582.399368 1877.239227 151 154 147
-48.175690 630.996609 1854.773903 38 39 42
-50.242090 658.303261 1837.784004 65 70 77
-24.751367 824.630260 1714.103699 128 130 136
-54.622799 620.512009 1878.631973 136 139 143
-53.450316 638.832855 1869.791031 250 251 245
-23.985142 826.420498 1721.392632 178 176 175
-30.000657 740.707970 1786.046028 113 117 123
-40.216330 718.534708 1813.948822 168 166 168
-20.667626 810.950089 1734.780121 150 150 152
-34.621921 742.074633 1799.644279 165 160 163
-37.231568 578.332472 1920.519066 105 104 104
-42.429549 711.879301 1832.557106 255 255 255
-48.014718 607.121038 1912.978935 255 255 255
-21.945508 537.357187 1997.274780 66 64 68
-1146.416855 418.880224 1431.366634 50 58 74
-1136.939335 369.532371 1465.807247 139 115 107
-1170.346355 451.549435 1482.296085 42 44 65
-1183.356857 392.838144 1510.808945 137 118 107
-1190.528011 388.378215 1517.968559 50 54 80
-1186.979675 399.765801 1513.316727 55 56 60
-1186.979675 399.765801 1513.316727 55 56 60
-334.145832 393.526912 1453.886795 255 255 255
-158.174849 527.717495 1365.188503 50 58 74
-160.625231 497.080040 1386.536789 139 115 107
-182.141340 512.056065 1413.465500 137 118 107
-182.001901 516.435194 1414.828682 55 56 60
-275.420046 638.933992 1396.115875 151 149 145
-275.420046 638.933992 1396.115875 151 149 145
-304.711795 391.902828 1527.198887 202 197 189
-303.796005 392.183828 1527.013111 202 197 189
-303.201222 383.822608 1533.366871 199 190 160
-288.663912 414.950657 1536.188126 183 178 122
-228.815007 393.465018 1567.128277 147 137 105
-476.414061 -58.072430 1863.065720 254 254 253
-476.414061 -58.072430 1863.065720 254 254 253
-450.921392 -86.047673 1881.309128 162 145 81
-469.237947 -79.374433 1914.669418 99 87 63
-438.115835 -95.692682 1920.238495 159 144 71
-475.405073 -64.892608 1918.220711 255 255 255
-146.959209 425.056601 1575.769711 114 113 60
-146.959209 425.056601 1575.769711 114 113 60
3.171960 392.329240 1584.767628 180 174 153
44.007355 308.891177 1627.463150 65 67 66
5.994465 389.908671 1594.784260 99 94 52
0.548263 569.840622 1503.917694 175 175 175
12.749444 389.892983 1600.342369 174 164 127
-12.062494 425.004196 1590.437508 88 95 46
-212.525964 -167.328322 1975.436974 183 171 113
-45.414475 240.572286 1702.578926 135 140 89
8.749305 572.583723 1504.929352 137 139 132
3.113190 533.792114 1528.904057 208 204 205
15.074235 574.396563 1507.578659 191 188 184
-0.950589 457.672358 1581.588936 177 173 157
14.412333 535.813141 1533.785820 75 78 64
-38.481480 246.358109 1713.944435 117 122 76
6.196590 498.654842 1561.409187 172 167 156
18.709473 549.932766 1529.518223 97 99 93
13.702522 585.867929 1511.545467 149 150 147
-108.544528 -31.065854 1895.929718 187 173 99
-108.544528 -31.065854 1895.929718 187 173 99
-22.519504 284.830332 1695.641899 172 179 118
21.005666 387.222910 1624.817848 150 140 82
-104.321885 0.177535 1880.772591 151 126 75
5.604059 517.567968 1556.799126 155 153 149
1.192529 457.274914 1593.321037 54 57 60
-21.687983 259.810829 1711.652565 195 189 148
-188.132918 -200.364351 2022.874832 157 141 85
-188.132918 -200.364351 2022.874832 157 141 85
-96.625233 49.657637 1855.522346 177 154 89
7.950867 431.462669 1608.999634 29 32 38
-180.704033 -171.725607 2013.096809 174 160 99
-95.702744 23.634601 1878.545189 157 132 78
6.990469 432.614946 1615.286827 113 118 128
-273.175812 -397.878313 2174.483681 58 41 25
-196.568823 -117.359388 1992.072296 178 166 96
14.456923 392.958593 1636.928177 32 34 36
6.719566 439.408255 1614.121056 29 31 36
6.719566 439.408255 1614.121056 29 31 36
-133.026826 -64.679217 1944.971657 189 183 108
-97.435331 19.789270 1886.457634 67 55 23
-266.414189 -406.015444 2185.706139 142 119 74
-20.120829 276.661873 1720.382309 165 172 125
-20.120829 276.661873 1720.382309 165 172 125
-97.845566 -13.074805 1910.657310 53 47 36
-97.845566 -13.074805 1910.657310 53 47 36
-97.085279 -4.886665 1910.525131 33 28 24
-249.043441 -366.866398 2170.322418 135 114 64
-250.881648 -373.529482 2179.135323 52 45 23
22.054403 393.359137 1650.736427 86 79 29
-11.966826 298.469186 1718.560219 151 161 90
-123.584187 -53.962427 1959.665489 52 46 20
-98.870361 6.545933 1919.432068 25 21 18
-12.311585 303.027773 1719.795418 72 76 34
-16.305405 302.683902 1723.577309 90 95 50
-100.790942 43.329042 1905.089951 93 79 58
-94.945270 20.148879 1918.665314 83 72 59
-94.758326 67.716885 1891.293335 146 124 79
-0.672742 450.217342 1638.173866 165 164 164
-128.294551 -72.174042 1987.535095 178 167 99
-103.781259 64.277917 1900.502396 31 26 22
-114.737356 -33.021873 1961.680412 136 122 64
-54.964668 204.365349 1803.444481 48 35 23
-14.218724 281.314707 1745.611191 150 154 98
-14.249523 282.633185 1745.227432 151 159 93
-25.624120 273.890305 1755.176926 148 137 69
-25.763938 270.521855 1760.249329 48 42 32
-13.576145 313.154840 1732.980537 73 78 37
-105.422080 -1.537527 1950.128746 54 44 26
14.442790 403.047895 1672.211266 172 171 155
-97.573107 22.685961 1933.911896 123 108 57
39.039716 350.587058 1696.276855 92 99 61
-64.902920 184.755564 1829.597855 185 164 98
-112.952232 -193.768179 2068.951035 21 19 12
-48.103178 221.226692 1803.582191 39 32 21
-53.992593 214.474130 1814.780617 60 50 42
-111.833775 52.001113 1931.525421 61 57 42
-64.927709 175.793970 1842.643547 94 78 45
-26.833317 277.109623 1770.785141 46 38 36
-120.126116 -182.201457 2077.643394 99 88 45
-120.126116 -182.201457 2077.643394 99 88 45
-113.552928 -194.059002 2082.414246 137 120 56
-113.552928 -194.059002 2082.414246 137 120 56
-113.909519 19.399682 1956.978989 64 57 47
-112.789929 -150.727105 2057.210541 110 100 65
-66.027784 191.845131 1840.802383 169 155 88
-62.048024 219.146943 1825.440216 165 144 76
7.045881 405.691051 1691.869926 164 152 125
-19.900055 324.307704 1750.689697 95 105 40
28.516778 375.896859 1703.036880 128 134 80
-110.825896 -152.601135 2067.976189 27 24 18
-92.624986 -93.389249 2028.605843 21 18 17
-99.171984 -122.712457 2049.639511 83 69 46
-124.714530 -191.447163 2100.078773 46 38 23
-121.034050 -237.886477 2130.585861 173 160 81
-93.293464 -146.026742 2066.790581 161 151 95
-78.923851 414.375210 1729.447556 95 99 103
-18.368617 327.213597 1760.621643 74 71 39
-69.748747 -67.674845 2019.385529 167 153 96
-19.046582 332.090569 1762.025070 61 59 32
-79.953897 -120.541525 2056.035423 161 147 95
-19.176465 333.121896 1766.784477 144 150 82
-26.300076 484.277534 1679.394531 167 164 164
3.363663 430.910158 1702.902222 95 99 103
-98.939312 -212.054253 2133.048248 146 138 82
-79.914635 -98.552352 2060.782433 72 64 61
-246.577740 400.014687 1825.411987 178 173 155
-62.620091 -11.665994 2007.565308 113 114 83
-54.416329 -44.240841 2028.399849 16 14 14
31.432179 378.593779 1737.644005 99 105 84
-298.180580 211.545515 1967.630386 73 58 36
-57.353288 -3.397488 2007.248688 59 58 53
-19.601047 468.577337 1705.876350 116 119 120
-19.601047 468.577337 1705.876350 116 119 120
-32.158801 318.052435 1806.473351 134 143 122
-64.410448 -116.712654 2085.825348 129 125 73
-54.107809 13.271128 2003.823471 113 107 72
-69.977862 -124.270570 2096.349716 38 31 17
-58.719289 -149.207985 2107.226181 148 132 84
-59.716272 -90.467197 2072.453308 18 14 15
-63.029796 -159.588897 2116.781044 167 156 95
-280.980515 233.913374 1961.472321 66 59 39
-125.319123 95.976210 1985.552216 85 69 40
-72.568887 52.327883 1999.155807 109 96 73
-22.645608 480.310202 1723.239326 123 124 115
-318.536329 194.338000 2026.580811 254 255 254
4.165955 447.617388 1738.041496 178 173 155
-41.488460 -174.354291 2148.392868 109 96 48
-51.549178 -97.690952 2109.602928 146 131 71
-44.613498 -158.896136 2146.204758 159 138 84
-53.211504 -207.729149 2182.287979 181 172 109
-119.779098 140.604579 1992.392349 20 15 16
-22.940697 705.755377 1605.427933 134 123 123
-38.973939 -157.824314 2161.257362 97 83 37
-37.839201 -161.378121 2166.030121 160 139 78
-113.843811 154.290402 2000.178528 135 117 83
-36.846823 -163.649404 2168.930435 155 135 73
-36.846823 -163.649404 2168.930435 155 135 73
-47.487876 -134.551013 2155.592728 166 146 85
-284.132385 205.356383 2043.950081 30 22 22
-27.332625 496.933794 1748.301888 113 115 106
-23.266099 710.560942 1610.972595 150 139 139
-30.058560 520.858479 1737.266541 113 115 114
-35.532278 -175.424623 2183.275795 160 144 76
-29.604262 389.364386 1822.348213 148 156 135
-34.509262 525.280905 1738.612366 168 166 159
-36.184937 -185.263765 2196.937752 87 68 36
-73.147076 -127.065003 2176.620483 84 74 51
-26.599577 716.716290 1620.276070 126 121 121
-126.517737 114.441335 2051.458931 56 53 41
-126.344526 136.429298 2040.037727 104 104 70
-6.603731 452.697897 1785.601997 58 55 26
-126.467061 118.540013 2056.096840 111 100 64
-126.467061 118.540013 2056.096840 111 100 64
-35.019237 529.306316 1753.402901 101 105 106
-129.061353 128.550625 2056.144142 49 39 33
-130.104196 114.245129 2066.521454 63 50 32
-224.828649 207.362461 2057.589531 253 254 252
-33.634651 515.906477 1777.262878 123 123 107
-268.966508 303.423691 2057.253456 140 128 78
-13.512197 479.659462 1818.994141 132 128 69
-50.439209 376.409292 1905.911064 95 99 75
15.072331 450.451326 1844.192696 95 100 83
-46.239397 566.573668 1803.264809 135 131 72
-40.039042 547.062254 1823.501015 116 114 59
-55.918968 396.660185 1937.118912 82 75 56
-39.610678 547.523355 1829.136276 170 160 119
-43.727165 554.590607 1835.434341 113 115 97
-46.271625 563.572836 1848.671913 106 111 110
-42.693281 581.988955 1837.063599 166 164 164
-35.196853 559.463644 1869.355392 87 89 68
-21.554273 547.071505 1876.763535 124 120 82
-21.554273 547.071505 1876.763535 124 120 82
-27.693942 550.408220 1881.730843 61 60 43
-28.880963 555.283451 1879.507637 157 154 146
-39.795956 608.703852 1847.695923 98 95 100
-35.314962 561.392975 1880.393410 47 48 48
-30.328086 563.678503 1888.912964 52 56 58
-30.328086 563.678503 1888.912964 52 56 58
-48.615730 616.014385 1868.554878 46 46 50
-4.176180 502.620935 1926.523590 118 115 96
-41.214296 701.651049 1806.572342 110 119 132
-48.864114 664.142370 1838.705635 160 160 162
-46.299577 656.480932 1844.438362 95 96 98
-51.196420 636.802435 1864.201927 104 110 118
-27.939665 825.251484 1715.519905 122 125 131
-42.702731 681.136703 1828.705978 181 179 180
-41.024360 693.820286 1821.353340 174 172 173
-23.934744 575.548458 1899.152184 97 93 94
-25.833640 822.573566 1724.802589 121 121 122
-27.673000 570.816708 1909.946251 59 56 56
-24.356176 826.582241 1721.518517 180 177 179
-34.589720 761.840868 1775.677109 50 61 72
-35.280102 756.210470 1783.933830 134 137 146
-14.807132 537.506628 1992.618370 68 65 69
-291.127014 630.530167 1400.260639 160 160 157
-291.127014 630.530167 1400.260639 160 160 157
-319.971037 409.936905 1525.534534 138 129 66
-80.746901 299.362636 1598.297787 142 143 106
-36.773542 300.229454 1607.099152 151 150 109
-476.237535 -59.580988 1863.731003 253 253 251
-477.244186 -48.536906 1867.301941 101 85 44
-477.244186 -48.536906 1867.301941 101 85 44
-484.950304 -42.764029 1871.985054 254 255 254
-451.844263 -99.360973 1898.798180 158 143 83
14.123088 387.359691 1598.927212 175 167 135
15.649584 400.203037 1596.375465 170 159 122
12.405253 573.455620 1508.405876 187 183 180
-14.678025 457.529974 1575.681400 86 88 72
20.479512 398.874521 1603.651428 95 89 70
20.479512 398.874521 1603.651428 95 89 70
28.430668 373.605394 1617.103004 74 76 60
-219.157171 -116.280782 1917.182541 164 149 114
5.163549 524.210930 1555.723286 91 93 80
23.343337 385.497618 1628.254318 141 130 79
48.431861 720.608187 1449.170303 165 161 147
-238.304329 -200.927234 1997.097778 102 101 49
2.674125 475.103998 1593.462658 76 79 86
7.165013 439.299488 1614.076042 34 35 40
-129.950643 -55.099255 1909.317780 193 183 125
8.978057 431.913710 1621.218491 115 124 137
18.362574 424.341536 1625.179672 168 168 174
19.697462 418.462896 1629.815292 45 48 46
19.898203 666.603565 1494.283962 123 126 131
19.898203 666.603565 1494.283962 123 126 131
-135.796380 -72.455817 1933.159256 140 129 74
23.329158 393.243647 1650.531197 75 67 18
-92.549711 34.362701 1867.866516 147 123 71
-129.556286 -54.606926 1933.292198 183 175 109
10.175301 401.561642 1656.764030 40 41 37
-170.530272 -134.677529 1989.024544 194 186 124
-10.521886 430.367899 1650.271797 93 94 94
-10.521886 430.367899 1650.271797 93 94 94
-12.044601 288.640499 1734.123611 146 150 87
-90.667456 55.463833 1881.251335 66 54 45
-90.345144 -1.958067 1917.996407 72 62 38
-133.341408 -70.424265 1964.250183 183 171 110
-13.315344 307.803726 1733.097267 125 132 66
-15.403070 436.838531 1661.343765 102 106 106
-15.403070 436.838531 1661.343765 102 106 106
-102.944899 -21.237090 1939.713478 94 80 47
-138.602364 -92.308313 1989.629173 92 83 64
-91.532898 13.458501 1924.395561 27 21 21
-137.062490 -89.002460 1992.939758 166 153 101
-91.905963 12.428316 1932.159424 113 96 45
-98.351622 25.811478 1926.023674 25 20 21
-45.665255 219.120073 1806.242561 133 113 69
-52.557862 209.037280 1813.741875 114 97 69
-112.912202 -36.823791 1967.480850 118 110 80
-62.172842 184.159386 1833.008385 134 115 60
-100.238144 7.201632 1942.295647 28 25 23
-62.493676 180.304956 1836.192131 174 158 91
-103.574157 -6.198915 1951.474953 146 132 79
-56.150109 202.024770 1827.154160 89 75 39
-105.793023 8.263423 1949.324226 70 62 46
-66.157144 168.035650 1850.117111 159 144 90
-257.654548 -413.645792 2221.530342 37 31 24
-211.226964 -430.869055 2224.757957 104 93 39
-18.509927 300.766587 1771.882248 93 94 62
-65.072989 209.248972 1836.279678 112 97 53
-18.691921 316.102958 1765.739822 74 72 39
-191.332924 8.676851 2010.694504 23 18 15
-69.367176 -25.513339 2007.856178 69 71 66
-74.185479 -127.742493 2070.722198 34 24 14
-234.447098 200.352645 1915.541840 73 65 50
-234.447098 200.352645 1915.541840 73 65 50
-225.747037 -402.042294 2270.197105 143 129 55
-31.524980 313.900900 1805.153847 47 44 37
-62.246966 -109.458685 2062.826347 138 124 83
-44.395959 -71.751833 2037.202454 170 165 102
-121.134186 37.678608 1990.804100 75 70 47
-121.134186 37.678608 1990.804100 75 70 47
-68.601257 26.575756 1986.174011 20 16 13
-31.239587 -42.512825 2028.324318 135 137 93
-74.896240 -214.434290 2144.575500 33 31 23
-41.617557 -61.896241 2049.600983 182 165 104
-31.835595 501.544189 1711.851692 112 112 112
-62.015694 34.967205 1997.680283 96 96 79
-71.331263 -124.930358 2097.052956 42 36 22
-297.957134 208.368826 1954.591370 34 29 23
-118.811798 66.368198 1997.162437 63 62 46
-298.250532 194.732690 1967.720222 254 255 254
-37.013364 323.342037 1828.641129 59 59 37
-32.532215 -32.034180 2042.978096 159 154 109
-39.540341 326.125908 1834.252357 66 67 52
-47.227409 -171.399963 2136.883926 102 92 50
-61.100745 -106.989121 2105.498314 167 148 85
20.414171 420.021820 1767.054558 133 132 74
-24.280079 706.001759 1605.709267 137 124 125
-56.066555 -90.534723 2098.420906 95 84 44
-309.918928 210.092902 1983.838654 255 255 255
-94.307297 52.977246 2026.189423 124 119 78
-26.970717 710.900545 1611.812592 150 140 141
-119.917083 143.224132 1981.649971 131 107 67
-121.313202 133.910608 1990.720177 20 16 17
-37.643656 520.117044 1739.731407 108 109 108
-8.774783 448.946524 1777.051163 147 139 104
-85.664117 -75.613296 2122.059631 89 86 66
-3.964854 461.220026 1774.494553 167 157 115
-34.720501 -162.345445 2167.551231 150 131 75
-98.329443 11.093970 2080.760765 24 21 20
-40.496054 -199.819529 2197.476006 109 100 47
-60.489196 -104.570925 2144.408226 96 90 51
-241.929245 181.169701 2027.149963 20 16 15
-31.701151 509.161854 1766.676140 111 113 102
-293.979383 249.555302 2003.793907 255 255 255
-37.025103 -161.208701 2188.620949 97 82 44
-130.716860 112.715888 2053.690910 46 38 30
-37.692547 391.765594 1854.860115 89 101 36
-294.600749 202.606320 2048.738098 34 26 25
-130.882037 116.715634 2058.499146 113 100 65
-38.808271 519.380903 1784.407806 119 119 98
-234.816098 198.661578 2060.916901 46 40 36
-27.740768 813.514137 1608.618927 148 143 139
-39.024594 521.876240 1798.666573 143 142 122
-269.972467 280.919933 2057.810974 98 94 69
-48.611832 566.879320 1803.906250 134 132 73
-278.120494 296.963477 2056.192970 254 254 254
-282.507801 300.610733 2063.619041 152 137 85
8.078056 461.704636 1863.638496 109 112 101
-42.136049 547.273684 1833.906937 153 151 130
3.673290 475.642586 1871.570587 76 75 69
-47.848949 556.745529 1840.426636 112 113 88
-62.606353 404.983711 1947.036171 153 158 103
-45.768481 454.714584 1914.120293 173 168 138
-47.625655 566.657925 1852.234268 164 161 157
-61.657971 460.005903 1930.888748 168 168 125
-28.779352 541.647911 1868.284225 66 68 51
-44.416583 608.176231 1840.096092 130 127 126
-42.727491 604.463911 1845.193672 161 161 166
-45.044804 597.159958 1853.069687 152 159 168
-29.722035 555.644131 1879.652596 159 155 149
-43.246230 615.991640 1844.808388 97 95 98
-39.423701 640.718365 1829.932594 116 114 116
-40.461579 653.619337 1826.704788 160 156 157
-41.330355 638.646412 1837.918854 122 124 132
-37.959459 673.635197 1813.759804 186 181 181
-83.826667 466.227341 1973.536301 255 255 255
-33.007106 586.998940 1872.334671 142 143 141
-31.507808 564.051962 1889.190102 42 43 46
-46.727225 611.730671 1862.367821 127 133 146
-29.505819 579.672623 1879.536057 157 155 152
-28.486413 586.712599 1878.052330 91 89 91
-42.636460 604.179382 1876.321220 98 101 108
-36.027193 553.743172 1913.222885 152 148 101
-23.527673 827.381516 1720.848274 181 177 180
-39.302132 585.373211 1912.256813 96 92 91
-38.996595 579.484177 1934.569359 255 255 254
-41.623935 568.708324 1944.284630 255 255 255
-23.105891 548.954439 1975.378227 254 254 254
-17.526017 538.017702 1993.557549 75 72 74
-717.872381 487.408257 1278.512764 62 85 109
-727.134705 387.223744 1348.097610 77 102 127
-727.134705 387.223744 1348.097610 77 102 127
-719.025326 520.845604 1325.984287 90 104 124
-750.243187 402.088737 1384.492970 59 92 120
188.262713 616.912460 1402.545643 116 104 100
189.008892 658.610964 1388.720894 25 26 32
-313.164997 486.412954 1474.088478 81 84 94
-312.667108 493.821478 1478.971291 87 91 105
9.055700 566.907167 1511.234570 190 186 176
5.110683 586.705780 1514.305878 62 66 59
38.117838 325.130248 1649.358559 82 85 77
15.520036 398.860192 1613.953400 50 47 27
-0.734297 497.254562 1568.658066 172 168 158
-0.734297 497.254562 1568.658066 172 168 158
10.769898 417.952442 1609.774208 50 52 57
-0.599562 523.151779 1556.242847 92 94 71
32.455146 718.190765 1458.673477 100 103 104
-7.063512 466.070032 1588.336945 42 42 34
1.623882 538.257790 1553.820801 124 123 107
-2.910801 436.604166 1606.903076 113 116 123
12.915581 395.069814 1629.801369 183 179 176
-474.729252 -60.318428 1864.063835 252 253 250
19.417381 397.020125 1629.664993 183 179 176
-2.052674 471.135330 1592.676258 178 176 174
16.249914 665.678024 1494.775581 125 127 136
17.246620 404.270983 1631.781006 134 139 140
0.008728 442.447662 1616.154861 107 111 117
-19.991544 290.347266 1696.987534 113 133 71
-19.991544 290.347266 1696.987534 113 133 71
1.862774 424.593782 1628.871346 52 56 60
18.908188 392.320704 1645.580482 161 148 81
15.140817 414.795065 1634.143829 126 129 133
21.408634 393.165588 1645.463753 161 148 81
-21.068731 279.679751 1705.006409 179 183 146
4.000067 486.793709 1597.589493 110 109 105
-33.565706 240.679455 1731.494713 255 255 255
16.158478 400.331926 1653.315544 48 52 39
-12.175133 298.397541 1709.772682 69 81 52
14.135893 399.283552 1657.870674 146 134 89
-243.335915 -188.451791 1972.699738 153 148 93
-97.866869 11.952181 1867.815781 177 160 97
-12.646063 429.956150 1650.543976 93 93 93
-95.370740 50.325447 1854.216003 175 154 93
-98.926210 12.547599 1875.917244 108 91 45
-99.131238 10.045683 1882.532120 161 139 88
-15.084462 287.847686 1734.640312 143 149 88
-15.625839 279.099703 1739.736176 156 161 108
-233.686161 -284.769702 2045.755386 253 254 253
-42.029166 220.603323 1774.774551 188 180 113
-186.845934 -160.739970 1985.602570 67 59 31
-95.813739 15.199141 1890.334511 135 111 66
-92.468089 49.448824 1878.963089 63 50 37
-235.893226 -353.060842 2103.784943 255 255 255
-235.893226 -353.060842 2103.784943 255 255 255
-92.053592 -5.300948 1912.511826 127 112 58
-25.583345 282.224369 1758.532524 77 67 46
-94.239271 4.392404 1912.640762 36 28 21
-17.560279 245.669436 1781.290054 185 165 104
-88.479817 -6.007254 1921.128654 141 126 54
-26.051873 285.654140 1763.815880 71 61 39
-27.420357 276.377249 1770.564461 47 39 34
-35.160547 233.859015 1795.894623 169 149 78
-18.345906 311.060047 1757.647896 102 109 38
-40.216526 246.810341 1799.325562 158 142 72
-64.446974 176.856530 1842.005157 102 83 51
-20.278208 308.830690 1767.569542 59 55 29
-61.311024 191.264713 1837.797928 175 162 88
-18.457261 332.821083 1761.888123 52 50 24
-65.888774 188.728952 1844.047356 39 31 23
-109.022760 -48.257095 1978.464317 123 107 63
-266.085744 -409.127283 2187.439156 129 113 74
22.480756 392.577577 1729.113960 128 134 85
-62.420034 270.736623 1803.074837 109 96 70
-58.937442 249.033284 1816.132736 56 47 39
-247.224426 -372.972322 2177.973557 52 44 20
-235.105896 -428.686953 2212.524414 32 25 17
-259.458399 -418.039894 2210.730934 19 16 14
-109.909678 -186.816013 2072.322655 110 100 56
-125.188482 -62.347329 2009.417915 24 23 20
-73.550493 -82.461989 2019.655991 63 52 35
25.238806 392.422509 1750.746918 50 60 44
-29.149291 492.765617 1698.705864 113 113 118
-97.691661 -148.106992 2069.095421 174 162 108
-77.289271 -46.567246 2010.540581 172 148 99
-2.856117 426.686049 1744.417191 136 132 90
-60.951698 -33.093226 2009.751701 101 93 68
-66.383094 8.115630 1988.056564 19 15 16
-51.667988 -82.386863 2045.716286 67 57 54
-51.667988 -82.386863 2045.716286 67 57 54
-51.621860 9.564549 1993.999481 159 152 98
2.649211 450.465822 1742.547798 179 175 154
-3.668074 444.849777 1752.037239 167 158 125
-48.905766 -59.077907 2044.433594 147 137 81
-48.905766 -59.077907 2044.433594 147 137 81
-25.560549 705.533600 1606.095123 133 121 122
-69.100374 -186.330307 2128.078842 169 154 107
-59.343386 -149.608123 2107.673836 147 136 82
-37.385303 330.899239 1830.240631 67 65 44
-3.409157 438.891268 1764.919281 63 60 27
-67.415500 -122.635007 2095.362854 41 34 16
-26.161897 710.598993 1611.915016 142 131 129
-35.490382 528.038502 1720.920372 112 118 121
-68.180448 -116.437662 2107.112503 64 57 33
-310.655665 209.732080 1945.448112 25 22 19
-45.713750 -150.707674 2127.996445 143 127 81
-34.668449 520.291042 1738.601685 109 110 110
12.372404 415.191078 1797.987366 94 97 75
-34.454215 -181.634438 2162.134361 180 163 93
-116.780198 144.656396 1980.463028 129 107 74
-117.477024 153.067076 1980.032349 38 30 26
-8.346324 457.865524 1788.084793 140 132 90
-302.679086 202.634215 1973.649406 253 255 254
-284.908009 241.620755 1954.292297 30 25 24
-305.770111 210.505128 1983.055687 255 255 255
-40.418145 -139.083064 2159.734535 164 144 79
-101.875889 45.494702 2058.539772 20 17 16
-98.857903 38.260996 2063.206863 24 19 20
-117.873824 141.978085 2003.928566 20 17 18
