ply
format ascii 1.0
element vertex 1049
property float x
property float y
property float z
property uchar red
property uchar green
property uchar blue
end_header
-846.493149 659.780693 2470.531273 52 82 164
-801.593876 -106.697488 2206.698418 62 101 149
-854.599857 791.265821 2501.833153 75 114 196
-792.917442 -201.824450 2171.276474 34 62 115
-859.310055 880.400467 2529.008865 64 113 194
-792.446566 -115.669417 2192.712212 46 65 122
-791.293573 -115.756333 2194.522476 46 65 122
-847.588444 747.298956 2470.758057 70 93 166
-786.609221 -85.992223 2202.419090 115 157 205
-855.435658 831.930065 2473.703575 33 49 115
-780.394459 -76.249027 2215.252495 51 73 133
-842.123222 918.698978 2531.956482 81 109 191
-779.406595 -206.430912 2151.832581 42 67 121
-829.261875 680.557966 2448.904037 55 75 155
-824.748039 632.902622 2430.541611 53 100 183
-778.978062 13.945910 2243.962669 101 131 186
-827.962685 740.948009 2464.295959 86 125 204
-762.454605 -184.111822 2179.413033 45 65 125
-796.140671 -130.533373 2133.010674 43 65 131
-833.806705 891.214085 2505.523300 25 36 95
-775.851917 6.120010 2224.406242 45 67 133
-366.536450 -464.490795 2838.640213 161 180 188
-814.306164 659.286451 2429.999161 54 80 166
-828.377724 843.480778 2482.326317 59 82 163
-821.805668 772.263193 2463.823128 8 17 57
-767.681503 -86.145568 2176.223755 104 151 199
-821.541405 881.760025 2491.931725 85 126 207
-765.124416 -129.209280 2154.133224 55 72 137
-763.196373 -128.859067 2157.274818 55 72 137
-811.294174 843.668938 2485.272217 57 81 169
-775.310850 -23.416533 2174.642754 94 130 193
-352.993345 -456.986952 2823.790169 168 195 204
-352.993345 -456.986952 2823.790169 168 195 204
-754.637909 -174.179351 2145.814896 40 63 125
-760.278320 -93.854088 2168.058777 53 81 136
-793.949032 592.870760 2402.987480 24 38 88
-807.158756 738.561201 2438.928413 90 131 207
-807.158756 738.561201 2438.928413 90 131 207
-803.332424 870.488644 2491.629791 74 116 197
-795.566797 693.621349 2429.301262 62 94 180
-802.096367 856.349659 2483.659744 16 19 63
-789.636707 677.356195 2429.429436 21 38 112
-798.439503 926.100731 2512.347794 31 35 81
-796.941900 718.321419 2423.324013 52 82 176
-778.549433 564.410305 2389.223671 40 62 130
-791.673231 801.835823 2459.109879 9 18 70
-780.693245 687.186480 2421.584129 29 62 143
-787.460089 811.251736 2456.301117 73 106 193
-777.410460 602.727652 2385.147095 71 107 189
-777.770090 618.766260 2390.911865 8 15 62
-795.174932 871.295261 2463.988686 18 27 64
-770.245552 683.141279 2429.826355 91 135 208
-767.186785 578.277254 2390.390205 15 31 92
-791.357279 852.560806 2459.807205 62 78 154
-788.178158 848.517609 2459.580040 84 94 160
-768.303585 596.035480 2380.744362 67 104 195
-726.793242 -162.421274 2135.511589 117 149 206
-760.786247 307.366467 2269.210243 189 211 227
-774.538612 795.780420 2446.127701 16 32 101
-764.601278 578.922749 2368.878746 28 34 107
-729.190540 -153.723717 2114.164734 112 146 201
-778.660631 1008.091927 2510.512733 97 128 173
-722.729540 -104.041231 2144.413757 56 87 152
-768.838024 869.408894 2466.084671 20 27 64
-760.832930 729.944658 2418.888664 72 92 172
-758.840704 612.502289 2369.843674 34 40 91
-744.654655 334.602332 2277.106857 178 203 220
-715.505552 -53.567439 2167.820930 100 132 198
-726.657867 -5.756786 2166.213608 76 112 174
-723.119354 -35.681835 2156.647873 51 80 147
-697.950125 -277.541947 2100.499535 52 67 127
-700.307989 308.289266 2342.570496 189 208 223
-741.710997 627.181578 2390.201569 30 42 96
-730.574608 329.949689 2285.383415 175 205 222
-757.813454 892.990589 2466.706848 111 165 235
-749.636936 759.941483 2422.737312 59 87 185
-706.284618 -201.249456 2100.181198 41 63 128
-708.508635 -53.498292 2154.725266 59 83 155
-747.488260 721.538353 2406.329536 102 133 203
-749.184275 707.749748 2395.632935 20 20 63
-737.232685 601.897335 2370.093918 33 22 75
-699.200726 -278.192520 2072.656250 176 193 215
-753.324461 805.775166 2419.238663 83 116 195
-736.184835 618.114138 2371.712112 39 38 82
-743.550682 942.143917 2492.021561 18 23 68
-701.668215 -87.493610 2138.969040 116 162 210
-742.773962 857.751179 2445.890236 29 33 95
-740.838671 858.681870 2449.162483 29 33 95
-688.190937 -287.941575 2065.319633 34 46 64
-715.944004 317.217946 2263.049126 185 211 228
-695.514631 -32.778281 2155.026436 59 92 160
-702.906895 -61.684477 2120.766258 54 80 149
-723.478174 648.802710 2372.053909 87 118 204
-724.950504 631.023407 2360.890007 26 35 89
-732.378674 948.550320 2475.333977 77 107 159
-683.205557 -272.846580 2059.427261 177 197 212
-683.205557 -272.846580 2059.427261 177 197 212
-693.224669 -42.373553 2132.242966 65 100 163
-693.224669 -42.373553 2132.242966 65 100 163
-230.581141 -399.793315 2832.711601 76 78 88
-713.503981 726.108789 2400.846672 82 124 210
-718.841410 927.866268 2468.126488 17 20 55
-736.086559 1005.998802 2462.187004 99 119 153
-676.711512 -66.759366 2131.765747 105 138 202
-703.533173 605.769873 2350.822258 70 91 166
-725.567484 1020.084095 2475.731659 74 102 136
-720.789289 904.053688 2436.557198 32 48 101
-720.789289 904.053688 2436.557198 32 48 101
-712.809324 709.287643 2370.768166 21 30 89
-712.809324 709.287643 2370.768166 21 30 89
-717.042446 854.356480 2421.300507 26 35 90
-708.511686 755.112505 2394.567680 65 108 194
-680.259228 357.628131 2271.705246 54 65 93
-696.024275 639.451694 2356.830406 68 102 191
-705.550385 877.753067 2433.568764 105 141 215
-708.551168 940.818501 2452.988434 30 39 98
-1058.745956 1103.231525 1880.603790 56 89 135
-675.602007 340.962386 2262.382126 68 75 103
-705.287218 774.018574 2381.924820 61 98 190
-704.497814 821.553230 2395.162582 77 99 185
-671.058989 323.029900 2251.991081 80 91 120
-707.909966 1024.921894 2456.881523 103 144 193
-670.108843 334.832454 2248.426437 180 205 221
-688.353348 908.028984 2435.777092 33 26 63
-677.657604 757.364559 2384.057617 24 45 119
-678.032255 765.453291 2385.627556 94 124 201
-678.032255 765.453291 2385.627556 94 124 201
-678.025627 948.624134 2457.256317 87 124 204
-647.312307 320.859718 2240.490532 192 218 233
-656.237078 633.231926 2346.176910 97 150 217
-667.470312 829.029274 2401.841354 25 37 122
-644.034958 355.741143 2255.097389 178 209 224
-638.845968 294.690990 2229.058456 56 69 101
-657.943058 876.099300 2416.929817 15 24 78
-139.211774 -412.702608 2814.344406 37 52 59
-647.302866 826.894569 2405.582237 42 63 142
-619.711399 -141.352546 2073.347855 23 21 24
-650.073051 756.095934 2368.642044 84 106 171
-630.261564 361.773729 2244.467545 177 202 224
-617.383003 283.428407 2225.300026 194 220 234
-639.745951 965.256214 2445.366669 15 38 101
-640.504313 754.968643 2362.115479 37 42 86
-624.179316 592.036343 2319.914436 30 33 72
-618.123055 621.044970 2341.273689 83 121 199
-615.801811 354.215479 2237.826920 68 73 109
-609.888506 340.686774 2239.679718 198 220 236
-493.049812 1130.700684 2736.722374 48 68 97
-611.551380 572.931480 2318.350601 83 119 199
-597.237349 -84.855360 2087.733841 14 20 25
-591.744995 178.314531 2192.153740 78 112 185
-619.973469 936.068344 2430.307579 115 167 228
-614.108324 650.309324 2327.334785 38 57 139
-1064.805794 202.929854 1387.147045 78 80 112
-609.805202 659.823084 2324.211121 86 123 198
-590.387106 -9.336352 2098.186874 197 218 226
-590.387106 -9.336352 2098.186874 197 218 226
-54.333538 -413.910818 2851.517487 60 70 78
-604.654121 917.504120 2420.756912 115 167 231
-809.679031 -25.474009 1716.669273 31 28 41
-602.475977 962.573814 2433.506012 103 145 221
-580.670309 370.027399 2233.707047 77 85 115
-588.221025 706.808281 2347.132111 16 42 99
-576.562881 548.263359 2302.830696 36 62 133
-589.475298 830.580425 2386.120415 28 39 112
-581.078148 677.695656 2339.722061 99 147 226
-565.928602 -13.471065 2102.931786 38 32 41
-572.812653 378.603721 2237.313461 189 210 235
-586.097050 973.737431 2434.878349 35 73 136
-570.105314 -289.429688 1988.584900 119 128 141
-577.684069 662.599945 2330.481148 69 84 146
-576.692915 873.768711 2407.136917 28 32 70
-568.032598 620.668936 2312.688637 41 51 114
-572.501612 936.817837 2421.736526 96 143 217
-572.627306 792.286301 2366.963768 66 86 168
-566.077042 463.671637 2252.875900 147 187 238
-571.134233 959.918404 2428.365707 42 76 162
-556.274939 616.106415 2314.090347 82 109 191
-548.992872 551.956320 2295.005226 43 43 87
-556.270313 779.310322 2364.209557 45 55 108
-546.215487 382.848620 2228.791809 197 216 240
-793.607044 1105.225182 2086.608124 56 95 138
-551.620245 934.975338 2420.543480 43 51 114
-518.754530 -259.653211 2035.293770 102 125 143
-518.754530 -259.653211 2035.293770 102 125 143
-526.499224 228.280997 2198.219490 68 71 108
-550.856590 865.557480 2389.850998 17 38 108
-533.914661 593.352652 2310.037613 25 41 100
-548.267746 896.254253 2396.457863 37 85 168
-523.078203 399.509025 2253.919792 203 226 245
-530.882549 542.738056 2291.669273 73 124 203
-529.381800 -50.691831 2077.135658 31 28 41
-541.330290 779.411077 2359.047890 25 38 107
-516.358948 9.274513 2113.226891 43 38 46
-529.189920 873.342896 2399.563789 105 141 210
-535.041666 949.397564 2417.590904 26 46 106
-531.965971 815.687752 2372.273827 26 37 107
-520.163012 654.424524 2332.439423 26 31 71
-516.070700 505.260801 2278.056335 187 210 242
-514.015198 506.140137 2281.005859 187 210 242
-513.855553 687.742186 2344.662094 101 140 228
-204.112148 -42.778927 2579.984474 38 32 41
-518.992329 851.683235 2389.630508 73 103 186
-506.934118 386.356306 2237.182999 102 105 134
-525.291634 741.692543 2335.234642 87 110 194
-522.673130 956.423569 2416.319656 91 155 177
32.335505 -413.082886 2813.000298 104 109 118
-503.105068 48.042387 2118.272400 25 29 34
-243.149710 -349.246621 2389.386368 107 118 126
-511.942720 507.484770 2266.035271 97 142 204
-501.621914 114.110124 2135.495377 30 36 43
-508.834982 688.183212 2329.222488 27 47 123
-501.784086 3.691538 2092.983246 31 34 46
-494.235516 -91.759068 2068.565750 187 209 223
-492.711592 -91.506171 2070.610619 187 209 223
-492.323208 318.007588 2216.014481 203 226 243
-498.481131 810.606575 2378.094673 25 50 116
-500.505590 823.446369 2379.115486 43 69 147
-508.852530 928.346539 2402.026939 65 126 137
-494.661665 630.589247 2314.364624 79 117 205
-480.432224 840.709209 2401.978683 86 134 223
-488.431406 879.417038 2398.044777 20 38 96
-490.593338 688.116407 2325.398445 18 36 108
-473.781586 928.484631 2433.697510 25 50 92
-278.993511 -199.820638 2339.907646 49 53 87
-486.294699 618.800879 2299.507332 113 163 235
-262.600279 -303.732347 2313.441086 137 150 164
-468.023157 197.650421 2163.576508 92 123 194
-458.429956 932.817936 2434.284210 72 129 144
-457.534790 933.202076 2435.572052 72 129 144
-448.444796 470.472860 2286.558151 145 190 236
-458.780718 639.765835 2328.083611 64 118 215
-443.552399 1064.851856 2500.421715 73 96 121
-443.552399 1064.851856 2500.421715 73 96 121
-465.390921 380.064034 2220.486450 165 189 211
-455.176830 524.295568 2284.683037 72 121 198
-455.176830 524.295568 2284.683037 72 121 198
-461.571121 707.843304 2336.130142 64 90 188
-462.734413 683.604383 2324.210739 22 43 123
-455.380630 -136.912274 2048.181534 28 31 36
-454.892540 388.683748 2229.923248 109 123 154
-52.218866 -318.699527 2606.095505 61 73 90
-442.094803 379.810786 2243.028641 91 109 133
-914.382744 115.165365 1417.765331 43 50 88
-446.380377 320.714283 2205.153084 78 80 112
-443.142223 566.211414 2291.962051 40 54 104
-436.955881 -24.993250 2093.018913 34 34 43
-434.311152 277.255487 2201.691628 61 72 102
-433.442593 781.139612 2376.330376 89 141 221
-430.772209 76.867050 2132.649231 24 30 35
-439.455271 93.695134 2122.650528 22 29 45
-426.380253 519.224977 2288.263512 39 51 107
-418.748236 931.621742 2433.254623 46 91 99
-435.993004 -267.611480 1991.851616 72 86 104
-421.335745 733.511114 2357.801437 70 122 210
-783.156967 1134.534359 1939.476967 39 67 113
-416.160297 887.432384 2414.468384 63 85 142
-410.307837 598.186302 2321.658516 72 108 192
-418.825817 -44.730076 2084.875488 91 99 113
-459.824085 -13.715672 2032.471848 191 209 220
-408.289957 844.515228 2403.893471 5 28 64
-423.668766 344.218135 2205.594826 206 229 245
-407.680416 321.769643 2211.452293 65 67 106
-482.749987 1080.545807 2352.747345 59 92 138
-392.781377 611.571598 2320.139503 80 153 227
-393.927193 835.632038 2393.132973 24 38 92
-401.873398 38.191733 2109.632492 89 96 111
-404.176998 117.831409 2129.498863 44 29 53
77.235025 -339.971972 2694.490814 98 102 113
-389.281082 274.968505 2199.481392 61 70 101
-407.667971 -152.782762 2025.217438 65 102 150
-383.973694 89.751697 2138.358498 96 141 188
-378.484464 548.054409 2300.242233 14 30 95
-383.702350 534.914398 2287.374496 20 39 110
-381.538177 293.778539 2201.877022 205 227 245
-369.664097 636.890745 2333.926582 88 142 224
-371.702552 619.357538 2324.615860 30 33 74
-368.776250 740.984344 2369.211388 67 89 143
-361.474538 984.079170 2456.947327 42 66 142
-365.200591 709.186554 2359.013748 109 154 224
-349.580693 1026.078129 2486.114502 62 82 103
-356.168985 903.877926 2431.704712 24 33 84
-359.857011 880.107880 2414.032555 33 84 125
-364.172578 326.296973 2221.264839 65 69 94
-356.012201 528.875637 2295.521355 48 60 139
-335.351014 900.800323 2439.361382 23 41 79
-342.419338 508.329582 2295.162773 186 208 229
-339.176655 714.220905 2362.248802 26 34 88
-326.999497 881.116199 2434.299469 21 69 102
-328.666449 758.086300 2386.898041 105 175 187
-69.169974 414.085102 2632.391739 204 228 242
154.404283 184.021914 2872.585106 25 32 57
-309.025025 237.401152 2217.396736 200 225 241
-318.139505 299.103642 2220.758247 64 63 93
-304.796338 579.351759 2329.856873 76 102 198
-291.256952 859.728050 2436.341858 31 75 133
-299.075294 623.724365 2345.979500 69 131 214
-286.128235 907.028580 2452.811241 42 43 70
-316.441631 70.797974 2131.230164 26 35 45
-302.183986 315.345621 2231.147003 199 225 242
-303.310323 96.008676 2155.589867 17 25 47
-289.340615 734.305811 2382.438278 9 28 94
-263.554168 695.504522 2385.914230 24 39 98
-264.526916 717.454004 2387.018204 33 48 132
-246.502209 793.754053 2431.813049 16 36 90
-248.698211 549.851418 2349.737930 43 81 157
-245.928168 851.644802 2448.325729 23 43 119
-245.928168 851.644802 2448.325729 23 43 119
-247.414994 673.333549 2385.038567 23 32 89
-234.996152 781.336403 2436.833954 33 46 114
-225.059342 630.126286 2401.128578 71 122 217
-240.393662 582.830048 2357.431793 80 117 208
-224.656844 740.234184 2426.687813 76 115 215
-249.023223 417.259502 2282.728577 79 99 126
-378.427076 -173.688745 1904.150391 41 50 91
-185.087109 700.667715 2426.611710 31 53 112
-227.293706 278.171563 2234.167099 199 227 244
-178.054655 645.475197 2415.637970 36 44 100
-164.290774 749.817944 2460.802841 37 59 132
-156.010890 787.181187 2480.771446 46 60 112
-225.950837 -55.731940 2115.834618 33 29 41
-170.128584 158.371985 2247.150230 43 51 91
-198.011744 -114.299190 2105.393219 78 123 171
-57.490903 553.885365 2464.532852 42 50 91
-52.279246 555.931854 2470.986938 42 50 91
-38.132334 278.199816 2404.504204 196 222 239
-27.922606 154.565299 2355.862999 65 98 179
95.902026 481.605673 2617.562294 180 206 223
-46.365240 -238.083673 2172.736549 42 43 54
67.955345 637.565565 2581.088448 5 8 12
-693.516445 1187.345219 1731.709099 44 74 115
-60.325950 1136.946201 2403.738022 51 89 131
-563.797522 1216.461277 1744.919968 41 61 91
-397.558451 1191.992474 1936.037254 49 80 119
73.320597 1174.981117 2345.760727 108 141 190
256.836200 1162.324238 2540.320206 42 67 104
166.981494 1256.910801 2098.097229 50 82 125
-1487.044430 951.599598 2251.650810 44 74 111
-1049.987984 694.761848 3093.600273 43 60 79
-1023.200321 454.702520 3028.879547 102 132 159
-981.586170 124.667621 2957.718849 94 119 138
-982.435703 180.890441 2964.773178 60 75 101
-1008.408451 374.435043 2998.712158 60 81 112
-978.310871 182.011771 2972.896194 60 75 101
-969.163036 -29.674271 2888.983154 102 124 149
-981.805134 34.146908 2878.972244 52 76 100
-979.369736 112.326789 2915.853882 109 135 159
-989.076710 63.432485 2864.350700 52 75 99
-1011.146641 306.032276 2929.552078 104 134 158
-987.171936 -43.825254 2809.788513 64 80 101
-986.554527 31.334206 2836.353493 102 128 151
-1052.707481 597.589731 2960.130692 22 26 35
-951.368427 -238.761735 2783.324432 60 77 98
-1031.906700 427.502775 2920.650101 114 136 164
-947.178459 -252.907181 2781.928062 106 129 153
-1024.385166 296.925640 2868.319893 65 86 111
-1027.865410 311.400914 2859.446144 108 138 161
-1051.266479 606.141710 2945.796585 83 103 119
-988.736439 72.479582 2827.809906 106 137 160
-1051.008034 440.698957 2865.933228 56 77 104
-1046.901608 468.079567 2887.372017 54 75 103
-1072.250080 641.949844 2909.285736 111 142 165
-993.617821 53.336287 2802.028847 51 75 99
-948.337078 -382.172084 2692.559052 40 53 75
-982.316399 27.054963 2810.922623 57 76 98
-1031.059742 379.479980 2863.966179 108 137 164
-1088.293171 708.334398 2893.278503 29 69 108
-1047.501945 545.644283 2904.842567 13 22 32
-1024.144363 306.599712 2836.751938 75 81 108
-1054.532433 586.726904 2900.775719 79 88 102
-926.269722 -364.557433 2726.951027 111 134 158
-964.240265 -249.632287 2695.438957 58 78 103
-984.558773 -112.843394 2704.026031 107 131 155
-998.353004 36.737981 2741.024208 48 69 94
-998.353004 36.737981 2741.024208 48 69 94
-1046.619606 490.726662 2843.728065 108 133 158
-1005.785942 130.006969 2762.130928 115 146 169
-972.452927 -232.195115 2664.302063 115 143 166
-1041.464520 534.404135 2873.037910 8 22 33
-962.030029 -276.358843 2661.948776 54 73 99
-980.719852 -122.269821 2691.154099 54 66 89
-903.339291 618.031645 3194.152260 13 22 32
-1038.724899 543.730879 2867.271042 113 133 150
-965.284729 -325.021935 2619.878960 42 61 82
-1067.611217 636.279535 2841.908073 108 132 156
-994.614315 -105.746758 2652.659798 98 125 149
-1041.734314 686.695480 2915.153122 102 132 159
-1041.734314 686.695480 2915.153122 102 132 159
-982.195854 -112.753093 2669.902992 110 129 154
-1047.990227 473.107386 2798.668098 94 121 151
-1060.345554 597.219324 2821.895409 69 80 92
-1050.727463 560.094213 2823.891640 119 148 165
-1062.909889 621.874666 2822.781372 22 27 35
-1046.041393 449.989557 2778.197861 108 140 163
-1061.820698 699.585533 2857.394791 115 140 163
-1011.983585 285.338759 2755.953407 99 123 149
-968.034458 -282.434130 2578.960419 45 64 85
-1060.976505 475.933981 2727.624702 94 132 158
-1001.227856 116.734695 2688.628769 99 123 147
-976.008320 -48.984784 2659.577942 113 144 167
-973.752403 -214.255667 2588.506508 108 134 151
-936.302185 -313.256764 2621.659279 75 89 111
-959.028339 168.422425 2785.623169 108 137 161
-1040.279675 574.347973 2797.560310 118 143 169
-1042.898846 501.304340 2752.740860 60 82 110
-968.009949 -158.422935 2593.032265 42 57 78
-964.611912 -243.481469 2561.265945 43 52 75
-971.919346 -214.396334 2558.774185 66 84 103
-965.291405 -142.877448 2602.470398 101 128 147
-1030.267620 307.897067 2651.872253 122 153 176
-980.228233 -75.724077 2572.945023 110 136 162
-964.344788 -103.208411 2588.843155 109 139 163
-982.350349 -86.823523 2555.276299 52 66 92
-967.491245 -159.352243 2541.951752 102 129 149
-1005.721569 140.557563 2595.859718 83 108 134
-957.425404 -287.758827 2501.217651 59 75 94
-983.041191 -70.758271 2541.756058 108 137 160
-961.104107 -224.451041 2514.626312 103 125 145
-1026.496124 553.889847 2721.381378 107 137 162
-950.498962 -241.849899 2519.855690 106 132 149
-973.987961 -15.695578 2571.135902 117 140 165
-1018.236160 426.028538 2660.271263 120 141 168
-965.441227 -209.807944 2487.399292 108 129 150
-1011.148739 402.862358 2662.847519 95 119 144
-999.711514 250.685692 2617.905807 102 131 154
-968.523216 -77.313715 2528.676224 115 147 170
-1020.228672 380.205178 2622.809982 60 82 107
-955.203724 -119.182754 2519.829750 101 131 152
-1011.217785 357.189727 2614.798164 43 60 87
-1003.864384 337.576246 2609.119225 48 61 89
-966.842937 -11.100759 2531.587601 110 132 157
-955.470371 -306.263781 2425.815010 46 50 70
-1025.942516 591.769743 2670.975876 117 147 172
-966.166687 -14.971662 2522.707939 108 131 156
-992.812824 275.143647 2593.832207 57 78 100
-976.045132 167.670679 2579.218674 108 138 158
-979.815578 156.257093 2556.575203 68 79 107
-978.514194 65.901095 2519.800758 61 78 104
-959.727478 -181.031716 2438.907814 64 83 104
-1032.377720 888.111210 2750.488853 41 61 79
-975.741577 190.490592 2547.698402 125 153 177
-961.402512 -63.965333 2466.681099 118 142 162
-1004.131126 516.375542 2629.686546 21 32 70
-995.174217 473.882198 2615.592003 26 32 69
-937.929726 -299.811554 2396.995163 112 136 160
-944.614983 -162.311375 2433.569527 117 144 165
-1002.573586 835.449600 2664.111900 70 105 153
-1002.677727 809.127140 2641.371918 74 103 156
-1259.585857 989.413834 2153.340340 89 128 177
-971.787739 848.661041 2603.518105 55 82 142
-956.282139 656.525469 2524.735832 81 122 171
-940.737152 638.956165 2510.519409 94 129 181
-951.550102 811.765671 2539.268112 60 95 172
-651.094627 -398.039603 2595.971298 85 116 140
-926.114941 763.856506 2541.057396 21 34 85
-911.898327 762.517738 2546.296310 65 93 154
-925.462627 817.478752 2530.648232 41 51 105
-910.657406 742.423058 2514.489174 20 45 106
-906.708908 788.217354 2532.405281 11 26 83
-906.708908 788.217354 2532.405281 11 26 83
-863.090134 -82.152927 2267.264748 31 46 95
-903.709888 767.602110 2516.085815 67 101 176
-888.724709 503.391695 2425.393677 62 116 194
-901.358414 877.794647 2541.290092 29 34 79
-900.294018 800.903702 2512.602234 7 21 81
-906.757736 803.211498 2499.718666 48 91 166
-839.771461 -58.966720 2288.999939 93 115 172
-848.561764 -49.922022 2267.947388 108 138 191
-898.394585 848.367596 2507.007980 51 74 152
-878.568363 765.825796 2487.150955 66 127 204
-833.897209 -187.340188 2207.996368 35 59 105
-829.375839 -161.158645 2223.004532 33 48 97
-871.457386 801.198387 2503.542709 55 85 167
-849.051380 324.895978 2365.073776 173 203 224
-871.028519 717.923403 2469.625854 33 39 79
-871.028519 717.923403 2469.625854 33 39 79
-873.791504 266.558480 2301.493835 152 178 206
-840.064907 275.330138 2355.666542 158 185 209
-838.191700 262.791133 2352.594185 69 84 149
-865.327740 205.556631 2288.133240 57 70 132
-836.352158 250.148535 2348.631859 152 178 206
-831.175137 187.082481 2330.144691 57 70 132
-873.402977 846.366787 2492.589188 12 19 59
-827.586555 149.472237 2312.328148 152 181 199
-829.620743 126.946509 2295.368385 155 182 216
-816.689491 -45.101044 2252.221489 44 65 123
-814.450073 -34.828889 2248.168373 106 139 192
-805.309677 -180.266929 2208.278465 38 60 116
-803.779507 544.287825 2455.610085 41 73 146
-1185.974407 -115.092719 1601.216888 49 72 137
-832.723808 679.532433 2442.860413 55 75 160
-802.073288 -62.419969 2223.690796 38 57 118
-804.002857 4.159077 2240.591240 105 133 193
-804.002857 4.159077 2240.591240 105 133 193
-831.665707 978.123856 2541.087341 59 74 88
-831.665707 978.123856 2541.087341 59 74 88
-832.479858 774.303675 2464.054871 87 111 177
-795.176029 0.559155 2237.427139 31 59 118
-795.176029 0.559155 2237.427139 31 59 118
-815.218830 659.745169 2428.629112 60 87 171
-456.306362 -170.821261 2703.466225 89 117 168
-783.352089 12.555704 2243.943787 95 129 186
-786.183977 -86.333537 2202.956200 109 150 196
-785.313749 -7.406165 2230.542946 94 122 182
-823.685360 977.252579 2506.366158 48 65 83
-823.685360 977.252579 2506.366158 48 65 83
-806.815434 636.304474 2414.045143 30 36 81
-822.649384 977.915192 2507.938004 48 65 83
-822.649384 977.915192 2507.938004 48 65 83
-777.122164 -105.039024 2193.554115 40 62 124
-812.241459 850.112057 2465.346718 7 21 51
-768.059778 -123.305285 2191.445541 125 153 211
-768.059778 -123.305285 2191.445541 125 153 211
-804.576492 689.461899 2413.610649 64 90 182
-795.642138 613.859224 2398.859978 49 87 169
-752.364540 849.869442 2546.296501 37 52 132
-797.597265 799.152899 2448.716164 12 12 64
-776.188660 508.316660 2379.123306 47 68 147
-767.650890 521.547747 2390.903473 112 154 207
-772.962618 -99.217808 2168.752480 112 154 201
-795.137358 886.917686 2473.200226 63 98 197
-766.868114 -0.536244 2209.497452 101 133 189
-862.744141 -427.973509 1905.385017 61 65 70
-775.520992 620.833445 2395.119286 9 18 67
-1197.498226 1067.306519 1886.893272 39 72 115
-752.900743 7.843108 2213.186455 50 81 138
-772.113228 780.908632 2443.991089 20 36 111
-758.744431 747.737837 2452.630997 25 42 121
-760.372162 590.663815 2393.148804 76 127 208
-752.025223 451.153278 2354.010391 14 37 90
-752.025223 451.153278 2354.010391 14 37 90
-757.457876 143.116248 2239.843369 55 83 152
-761.300182 688.450384 2418.906021 16 28 87
-733.030224 449.847031 2359.393120 74 104 175
-740.118170 441.609240 2339.635277 66 96 167
-747.877359 -7.538421 2174.321747 122 165 219
-96.752977 -468.896914 3007.054520 92 102 110
-724.338579 -188.756776 2144.128036 56 88 143
-761.179352 931.402779 2461.398697 14 26 65
-739.217949 -144.610214 2132.390022 81 108 174
-712.325335 -19.333211 2212.278748 57 85 150
-743.703651 710.962725 2404.929733 18 29 79
-744.779301 810.781860 2433.897972 66 108 191
-747.855568 868.127918 2447.225571 72 115 207
-735.205221 619.467497 2373.640251 25 36 74
-745.173740 841.831017 2432.402802 27 31 82
-724.488497 532.592010 2358.773804 155 179 214
-727.284718 -176.993728 2117.947388 92 123 178
-725.000715 311.661291 2279.666138 184 209 228
-714.487410 -5.016903 2184.725571 86 123 184
-713.495970 6.419708 2186.249733 114 150 211
-735.543823 671.841240 2372.436714 13 27 87
-735.543823 671.841240 2372.436714 13 27 87
-735.543823 671.841240 2372.436714 13 27 87
-717.601681 -91.101980 2145.997429 119 156 209
-717.601681 -91.101980 2145.997429 119 156 209
-726.462221 944.284344 2467.258644 15 30 77
-725.944042 744.568491 2399.121857 18 20 58
-715.065241 636.347914 2377.287292 22 38 98
-116.319406 -462.595701 2907.108688 55 59 64
-701.584959 0.832139 2182.200813 109 145 205
-709.073925 625.484657 2372.937202 77 110 203
-706.977320 -75.651491 2143.449783 59 86 153
-699.029779 157.781184 2228.866196 64 96 172
-698.839188 346.992707 2289.488220 180 208 224
-707.574034 -125.172079 2120.793533 125 166 209
-705.716801 829.545307 2427.620888 22 28 68
-706.959534 644.274378 2359.769440 16 21 70
-700.638294 1015.991592 2486.592865 51 73 94
-692.405510 -48.202872 2141.690445 104 143 204
-693.371344 -257.056808 2072.544479 61 67 121
-567.268085 384.380150 2461.824226 180 208 224
-567.268085 384.380150 2461.824226 180 208 224
-692.900991 924.490261 2449.617195 92 133 211
-692.576599 -80.719942 2125.419235 54 81 151
-689.220476 662.151241 2367.135620 133 169 239
-692.120266 131.771147 2178.563499 61 91 168
-937.381363 1057.176113 2113.461304 72 100 141
-937.381363 1057.176113 2113.461304 72 100 141
-663.409758 138.544643 2214.904594 61 91 168
-673.204613 959.799099 2462.825012 44 74 162
-899.780369 1058.601761 2161.757469 48 75 121
-672.148657 644.559574 2351.194763 15 36 100
-662.186480 616.627645 2353.713989 20 31 61
-662.186480 616.627645 2353.713989 20 31 61
-655.172825 -269.280028 2079.492188 49 58 119
-668.878269 869.783401 2419.276047 80 124 209
-671.387291 911.696148 2423.804283 29 34 93
-667.787743 881.369400 2419.036674 33 30 89
-667.787743 881.369400 2419.036674 33 30 89
-660.632849 767.196369 2389.642906 36 49 119
-663.531733 855.048084 2413.030052 28 36 95
-649.937487 573.193693 2331.717682 20 37 114
-650.004578 671.533489 2356.595612 73 117 209
-661.094379 908.167839 2414.526176 79 126 206
-660.812759 465.436554 2274.944115 48 72 143
-641.174936 733.547401 2382.475090 34 49 123
-641.174936 733.547401 2382.475090 34 49 123
-642.735624 357.117343 2257.443619 169 196 219
-644.034767 886.042118 2420.247269 29 36 84
-640.594816 633.280420 2342.608070 33 47 129
-640.594816 633.280420 2342.608070 33 47 129
-632.457972 297.394419 2238.926697 67 67 96
-636.478996 880.504417 2409.448814 17 41 115
-626.572275 352.900982 2256.023788 46 58 88
-630.786848 636.869049 2327.689171 82 132 224
-617.473793 803.975868 2397.022820 17 29 87
-624.107265 916.522789 2419.408226 28 40 99
-626.630449 686.693478 2342.730331 93 146 218
-613.366890 776.913071 2376.317787 72 127 216
-619.286776 -33.371538 2118.031120 19 27 31
-603.996611 917.617226 2421.670151 108 159 227
-603.499985 483.345366 2283.028221 110 141 200
-595.845747 947.479534 2434.730911 31 34 75
-592.749405 642.434597 2334.253502 72 105 203
-592.749405 642.434597 2334.253502 72 105 203
-589.515638 823.744011 2393.526649 94 136 215
-584.152794 825.672722 2400.229263 94 136 215
-605.089951 -14.770676 2114.745522 201 214 227
-586.275053 770.152760 2373.783875 68 107 196
-577.883720 666.549063 2349.581909 28 43 112
-579.762459 265.511250 2222.876358 56 61 89
-585.824060 293.658924 2222.447395 201 226 242
-579.314280 293.998718 2227.148819 199 227 240
-596.625614 -83.109891 2089.201546 17 21 26
-573.538351 392.530751 2263.920975 191 224 240
-575.630045 680.776978 2348.055267 106 149 227
-574.134636 712.517643 2350.307655 24 24 60
-574.134636 712.517643 2350.307655 24 24 60
-566.404295 610.490465 2320.269775 35 48 126
-566.404295 610.490465 2320.269775 35 48 126
-565.169001 741.161108 2358.729553 43 56 119
-587.362051 -9.064426 2102.388382 202 219 231
-564.408827 542.824507 2295.278931 67 121 189
-549.980831 866.825199 2410.762215 27 34 82
-545.690060 784.550095 2380.009270 37 55 110
-545.475006 885.318565 2409.928322 91 142 217
-537.948513 800.135136 2389.347458 8 23 84
-546.553087 536.673450 2294.758797 43 79 158
-542.860842 555.302858 2304.224205 42 39 81
-533.232927 903.851318 2418.822479 46 89 182
-533.486652 645.494509 2339.864349 64 95 182
-534.452581 666.160345 2336.792755 127 185 241
-530.368042 801.712132 2377.350616 67 109 205
-522.392416 876.958561 2409.650612 116 154 216
-521.529198 812.984371 2386.500359 79 112 200
-536.710787 49.290058 2133.795166 203 223 234
-518.472242 655.387306 2335.018158 17 35 70
-501.662350 967.947102 2447.482300 87 149 177
-528.127241 289.145160 2210.257912 65 70 103
-513.123941 793.496180 2377.067757 92 134 219
-864.718819 -23.738053 1678.132248 54 50 69
-513.762951 563.237047 2305.179787 22 39 77
-513.762951 563.237047 2305.179787 22 39 77
-556.405783 -134.034550 2035.783386 82 121 154
-1038.334942 1125.732613 1767.330170 56 87 128
-511.293983 392.344499 2244.549751 190 210 234
-511.242390 554.952812 2289.442062 74 125 206
-493.504620 652.331638 2339.430618 95 149 216
-493.087626 695.347738 2352.019310 24 42 123
-526.973724 20.874868 2110.298347 35 38 48
-526.973724 20.874868 2110.298347 35 38 48
-496.194172 664.738178 2334.421730 32 64 164
-525.962925 -26.993811 2092.202759 20 24 29
-483.557463 981.201363 2436.873627 97 177 192
-482.377529 657.709694 2330.725479 50 74 172
-479.698229 582.592583 2311.377716 88 146 225
-469.146872 837.339973 2395.591354 26 37 101
-536.277294 -186.462152 2011.051559 45 54 89
-485.048580 388.632059 2242.671013 202 227 243
-472.691679 534.773922 2300.303268 28 37 91
-482.408094 514.779091 2281.361580 50 74 157
-502.885580 525.079679 2253.952217 36 40 98
-498.760080 20.927660 2108.438301 119 126 141
-498.760080 20.927660 2108.438301 119 126 141
-470.437908 931.807995 2405.353355 56 113 124
-445.787001 902.683353 2423.883629 65 127 149
-455.739498 640.410185 2332.183838 84 131 223
-458.002758 607.023811 2319.145584 29 30 75
-487.765741 38.156229 2114.219666 201 218 227
-437.481308 805.536461 2396.544838 16 24 57
-471.188068 386.077738 2232.695007 94 106 141
-438.621569 769.840527 2382.400703 24 33 87
-437.986946 694.345331 2359.052658 15 32 119
-451.938105 526.199532 2289.336586 68 122 203
-431.079721 846.603680 2406.008339 28 44 110
-484.499121 -32.890940 2085.760498 54 50 69
-421.410751 883.945084 2424.561501 28 37 69
-475.312233 -41.096851 2089.550591 194 217 226
-434.463692 622.191668 2327.134132 87 149 229
-412.966633 933.471203 2441.155434 41 91 104
-440.726614 404.748726 2253.402328 77 99 133
-482.169962 12.126341 2089.133644 40 36 48
-456.704664 131.280839 2142.012596 18 30 46
-389.874601 924.206448 2446.077728 73 157 159
-437.884045 276.854777 2197.089195 65 63 102
-477.383280 142.459023 2108.517838 26 29 46
-427.744532 425.829792 2245.324707 198 226 243
-381.659269 892.881489 2433.717155 22 33 77
-443.938637 78.036213 2126.822472 17 27 41
-401.597786 552.115965 2309.595871 34 40 103
-364.219213 1000.096130 2481.169701 67 93 170
-387.362194 730.189610 2373.912048 76 112 206
-369.618368 987.781715 2466.989136 29 37 97
-413.082838 516.085482 2279.824066 63 94 170
-388.427210 670.021152 2352.938843 32 44 102
-369.054651 831.328487 2421.650314 39 49 91
-369.054651 831.328487 2421.650314 39 49 91
-444.673872 -49.718198 2079.520416 40 38 52
-351.618075 526.937866 2357.007980 28 61 127
-438.272619 44.949487 2112.961769 208 226 237
-393.629646 573.258638 2316.125107 130 186 242
-450.781918 -26.816508 2075.228500 32 26 37
-432.136011 93.785143 2131.808281 13 24 42
-378.011894 663.302946 2351.430511 25 39 95
-378.011894 663.302946 2351.430511 25 39 95
-441.114855 -38.741234 2074.681282 214 227 242
-362.453222 739.066267 2388.387299 18 26 74
-391.865206 -107.064414 2116.509628 30 35 40
-345.242381 996.811676 2479.627800 62 77 152
-338.813710 906.669044 2461.748505 62 88 151
-422.932816 120.564008 2137.794304 16 35 53
-420.009661 120.069528 2140.725899 16 35 53
-360.677648 755.767870 2389.939308 72 138 164
-345.533442 852.587128 2426.952744 82 160 169
-322.925353 991.049290 2492.482185 64 92 166
-335.002589 891.411114 2447.951698 37 81 117
-322.916508 959.850025 2478.441238 30 46 116
-379.932046 367.032933 2240.802956 105 121 146
-332.269573 763.386011 2407.315063 23 44 88
-370.672417 374.315643 2252.276421 173 182 210
-337.995934 882.805538 2430.644798 76 141 163
-398.349547 141.117120 2151.924324 90 150 200
-308.064842 1009.466267 2502.094078 28 36 85
-312.267375 887.732983 2454.219246 22 70 101
-392.907858 118.213689 2143.428802 38 45 54
-296.993589 902.912617 2463.547325 91 174 201
-335.445452 -254.915214 2098.878098 70 79 93
-293.765926 831.426525 2442.522049 79 151 161
-380.429554 129.522336 2142.524338 52 88 127
-379.494214 32.869273 2115.131950 209 227 236
-383.949256 140.492797 2138.075829 21 26 44
-277.599335 947.723198 2486.865044 95 169 206
-315.055513 537.014771 2326.885605 41 80 151
-386.493897 71.003485 2112.278938 27 36 45
-259.029150 949.352360 2493.925667 37 69 150
-271.489549 794.200325 2429.742050 58 98 155
-260.577822 833.739853 2453.099823 77 152 174
-348.572421 115.130889 2150.683403 28 28 41
-344.344735 211.095715 2180.107117 97 121 192
-250.687718 761.046028 2433.579063 69 98 192
-315.367770 333.813596 2239.689255 56 57 94
-242.681980 789.393473 2447.468376 81 127 183
-271.875596 654.177475 2376.004982 72 104 196
-268.384290 640.912724 2373.602486 22 46 126
-311.017203 301.466036 2229.918671 55 60 96
-340.931273 37.164471 2117.593765 203 221 227
-232.856321 798.786831 2449.441147 12 32 81
-327.106476 56.436765 2133.245850 205 230 237
-232.308769 627.427340 2391.790390 76 126 219
-230.123138 679.638338 2407.461739 13 28 80
-196.777165 854.825306 2492.767715 27 50 122
-195.916915 803.205299 2473.222923 101 153 229
-340.936279 -102.391648 2060.318375 27 29 39
-326.660562 -3.709419 2100.734138 216 228 238
-326.660562 -3.709419 2100.734138 216 228 238
-144.278848 889.280415 2547.839737 54 72 143
-305.872798 54.747605 2132.509995 202 217 226
-209.829807 623.039055 2395.857430 87 134 221
-243.422890 426.308918 2303.808022 200 224 242
-184.683573 741.670799 2454.714012 47 71 136
-182.267392 732.056999 2453.665543 33 47 117
-113.767529 939.600849 2581.597137 91 129 200
-274.784303 150.474858 2183.277130 18 22 37
-281.526828 144.581687 2173.203468 24 21 32
-303.585410 -27.142078 2098.122025 211 225 237
-295.720816 18.385477 2110.402298 202 220 233
-305.036950 -71.363872 2072.768211 24 28 38
-247.977519 215.866637 2214.290619 91 117 189
-201.489210 432.839775 2324.867249 185 216 237
-230.661440 253.299999 2235.804939 72 77 105
-230.661440 253.299999 2235.804939 72 77 105
-275.707221 12.436807 2118.344688 33 29 41
-127.072775 680.028963 2464.125061 42 71 141
-30.573708 595.458698 2545.576477 168 194 225
-180.848694 433.445501 2327.836609 107 121 147
-180.848694 433.445501 2327.836609 107 121 147
-172.208881 423.069477 2333.890152 84 98 124
-176.184654 351.457381 2304.933357 199 219 236
-447.124052 1137.359047 2187.509918 122 158 204
-212.174511 155.386925 2198.065948 30 40 89
-193.478525 68.729538 2184.270287 26 24 36
-36.892599 433.151627 2442.320824 84 95 122
194.520867 -302.525282 2510.664177 61 62 72
-182.990611 -17.847666 2153.938866 199 212 230
164.214242 -295.055914 2443.344879 65 68 73
-127.257144 -17.871633 2181.027603 21 25 29
-23.997782 -290.516543 2154.737854 37 36 40
-465.350533 1193.048954 1935.969353 35 61 96
-1105.245399 718.947220 3202.015305 35 57 82
-955.671024 219.054842 3117.576981 86 113 132
-1015.864658 334.180331 3031.079483 16 31 58
-1035.191250 339.487290 2972.402000 99 129 154
-1067.778587 720.350504 3069.305992 95 120 145
-1034.694576 401.340199 2997.457123 104 133 160
-1027.839947 286.448145 2951.559448 99 131 154
-1013.022518 236.207104 2956.847191 110 135 159
-1010.559082 157.630980 2921.119881 93 121 145
-1028.182697 289.277363 2923.472977 93 132 154
-1046.015072 423.259926 2939.306450 68 84 111
-985.631657 -174.712908 2791.522026 106 131 155
-1015.741348 -56.559038 2782.073021 59 76 97
-1027.581692 103.719747 2823.962212 104 129 153
-1052.411652 355.630374 2880.444717 109 134 160
-980.823326 -268.007994 2757.819939 115 134 154
-1044.599342 281.290436 2863.679123 64 83 109
-981.174850 -233.292794 2770.693779 105 130 147
-1004.120731 185.822964 2896.842957 51 73 98
-1008.151913 -94.196063 2772.678757 61 76 102
-1053.357124 430.865908 2902.574730 61 73 101
-1007.352352 21.524389 2814.487267 99 130 153
-1082.495022 704.606915 2950.344658 30 54 90
-1018.265915 222.793365 2871.552277 57 73 99
-1055.947018 445.808268 2892.348480 107 132 158
-1009.231281 98.450840 2836.596489 63 67 88
-981.372166 -230.242062 2747.749710 107 131 151
-990.310287 -243.997598 2724.560547 71 77 101
-1050.050163 350.940156 2855.258560 55 78 104
-1047.295570 394.883895 2875.241661 99 128 153
-975.325680 -273.566246 2736.208916 71 90 111
-1028.278065 128.932989 2797.393799 50 72 100
-1039.387131 321.729469 2853.520966 63 80 106
-986.617661 -299.623227 2699.383926 63 74 96
-978.150558 -356.203294 2685.005760 66 80 106
-991.783714 -337.771988 2661.927986 104 133 152
-1015.744781 -93.713546 2714.931870 95 120 141
-1010.822582 -78.958499 2728.679276 47 68 86
-1072.626019 624.457216 2896.168900 112 140 157
-1070.207882 721.238470 2931.462669 25 63 99
-1057.577038 371.574831 2813.455772 106 135 161
-990.529251 -275.222301 2673.477936 106 133 153
-982.038975 -318.320966 2669.099426 59 75 97
-982.038975 -318.320966 2669.099426 59 75 97
-1002.331257 -244.894361 2658.929825 104 134 157
-982.154369 -343.085885 2645.165634 58 67 93
-1012.367821 -135.903072 2671.870613 63 77 103
-998.906708 -249.807787 2633.690834 82 93 120
-1014.496422 35.008693 2711.791611 52 68 94
-1039.191914 125.288200 2701.389313 109 144 167
-1061.266136 568.359280 2834.231377 104 123 141
-1070.887375 498.623991 2788.953400 17 21 35
-1047.066021 306.754208 2754.430580 72 89 115
-1054.805565 371.090388 2759.937286 69 76 105
-986.264706 -275.166464 2628.279305 55 66 93
-1043.356419 488.219261 2821.942902 61 80 105
-1071.083736 729.299307 2859.521294 119 136 160
-1069.488335 709.260368 2845.705605 78 91 115
-1069.488335 709.260368 2845.705605 78 91 115
-1017.676163 -181.872368 2589.170265 47 68 95
-1031.232548 321.616387 2759.219360 59 83 107
-1007.710743 -223.223400 2587.839699 115 143 167
-1059.594440 577.588654 2805.922127 10 22 34
-1003.570080 -106.199026 2636.854935 96 132 154
-1062.725163 659.422302 2828.940582 66 97 118
-1008.539677 -126.303554 2613.392639 106 138 161
-998.611641 -79.304188 2644.740486 51 75 99
-996.017361 -159.898257 2607.057953 116 140 162
-996.017361 -159.898257 2607.057953 116 140 162
-993.735600 -217.241144 2586.734200 114 139 163
-1007.419014 -244.666696 2550.163651 103 135 154
-1007.419014 -244.666696 2550.163651 103 135 154
-1014.952374 -142.264223 2570.787811 66 80 102
-1031.562519 345.289731 2719.042206 113 139 163
-1031.562519 345.289731 2719.042206 113 139 163
-995.221519 -154.042971 2587.761688 113 138 158
-993.741894 -310.931873 2523.686028 53 66 93
-993.502426 -231.658268 2540.902519 96 125 147
-985.063648 -262.207842 2537.210464 100 131 151
-995.163250 -115.547740 2574.428749 107 138 158
-1026.690006 354.738951 2688.039780 110 137 163
-1001.075554 -144.608700 2541.050529 109 132 152
-1038.840294 325.615764 2640.887642 120 148 172
-992.705631 -126.809978 2549.500656 68 79 101
-957.441044 -227.489042 2565.786552 102 127 147
-970.807362 -350.315714 2483.712006 96 121 137
-1021.843243 478.371239 2702.328682 108 140 165
-1024.660301 360.751653 2651.945114 109 138 165
-980.109596 -328.430986 2470.559692 47 59 76
-987.028599 -217.530942 2497.296906 108 134 151
-1056.180000 796.475840 2752.406311 109 136 163
-998.531437 45.115304 2566.974831 85 101 127
-1011.022282 340.361094 2651.636314 115 139 162
-1023.897743 465.666533 2670.878983 60 77 104
-988.831520 -260.028696 2462.068176 62 73 95
-1015.828705 427.869749 2665.052032 113 140 166
-985.310745 -130.606461 2510.291672 110 137 157
-984.127331 -144.191515 2503.417397 55 69 95
-981.701183 -200.903940 2485.092545 63 83 103
-978.157806 -315.853429 2448.639297 42 58 77
-1007.212925 419.473696 2651.829147 52 68 95
-970.423794 51.248491 2532.367325 103 129 153
-965.019894 -236.155176 2401.681519 61 75 101
-958.821487 -298.893380 2364.334488 108 135 156
-604.679489 -515.127897 2831.861305 72 80 90
-965.259743 17.160122 2437.643814 18 29 67
-948.402309 -129.143894 2395.449257 23 36 74
-933.334064 807.482529 2595.682144 74 93 151
-924.644852 845.548820 2575.492668 19 35 77
-918.823910 793.940783 2551.419640 45 88 157
-878.470707 -267.963696 2249.909592 29 45 91
-878.470707 -267.963696 2249.909592 29 45 91
-699.463367 728.210545 2823.563004 96 134 179
-900.545406 817.357635 2551.003838 6 19 53
-900.218678 879.289246 2543.543243 16 29 69
-885.024071 849.794483 2546.537590 8 16 61
-878.614998 739.379311 2510.955048 78 136 188
-885.161591 795.658016 2511.631584 13 21 63
-874.983311 900.286579 2547.043037 53 97 170
-851.863480 -132.163823 2264.263153 21 37 85
-858.725452 560.134315 2457.721710 32 53 129
-875.522232 727.202034 2484.521103 11 22 65
-378.208637 -460.123062 2819.866562 43 50 55
-876.131058 798.464966 2496.326828 55 84 166
-869.266701 601.966906 2443.555832 157 178 206
-869.266701 601.966906 2443.555832 157 178 206
-851.961899 -155.272603 2239.460564 33 43 91
-854.538536 228.129029 2349.350929 45 60 114
-858.443737 836.776829 2525.580215 59 88 172
-870.381641 718.826580 2470.880890 28 41 84
-868.647385 733.209562 2470.993042 44 73 134
-841.601372 327.824616 2376.152992 165 194 212
-837.727928 289.965248 2366.629028 46 61 120
-837.727928 289.965248 2366.629028 46 61 120
-543.173981 -419.790220 2555.451584 149 161 167
-834.089851 213.225794 2335.049820 48 67 122
-834.089851 213.225794 2335.049820 48 67 122
-847.275352 873.841381 2511.559105 20 24 64
-835.154247 186.825562 2324.481010 52 70 130
-832.913685 200.391793 2328.685760 160 187 210
-832.913685 200.391793 2328.685760 160 187 210
-831.293392 370.142293 2375.312233 49 67 137
-830.417919 149.311197 2308.255768 149 180 204
-839.039993 857.517242 2501.774788 92 122 193
-841.354561 796.595478 2479.221153 24 42 101
-817.130280 -66.233444 2248.782921 64 84 141
-830.233479 680.449009 2446.375465 52 74 152
-835.316086 709.076405 2444.392586 22 25 73
-842.962646 499.736071 2370.702362 44 72 157
-825.158596 -60.151297 2231.686211 69 92 148
-825.158596 -60.151297 2231.686211 69 92 148
-809.910965 -102.390432 2238.975525 43 58 116
-821.153355 876.554012 2503.249741 24 34 78
-814.143658 -202.427101 2195.673943 83 122 170
-822.095299 881.593895 2487.869453 70 104 193
-818.093014 658.045816 2424.148560 56 87 173
-813.971806 -122.198844 2192.415810 108 145 195
-299.238658 -505.498314 2764.080811 100 109 113
-802.962399 -100.149393 2205.607796 110 146 195
-801.021481 676.098633 2425.466919 9 27 79
-801.021481 676.098633 2425.466919 9 27 79
-395.083189 -413.072348 2652.682114 146 155 166
-804.321957 836.411953 2461.392784 18 27 63
-782.422590 776.017952 2458.139420 16 34 95
-779.347324 823.149967 2470.247269 57 82 179
-789.092398 -172.812986 2176.316071 35 62 119
-785.314703 707.152748 2421.921158 16 20 76
-780.340910 -106.653810 2188.695145 47 68 130
-777.312469 620.626497 2392.696381 3 23 78
-769.955969 -113.195157 2189.090538 39 69 128
-769.283152 867.643738 2461.637306 12 19 58
-746.830845 887.243271 2477.498627 38 44 130
-736.434603 918.987656 2487.571526 23 45 120
-761.771154 -96.064085 2167.782211 54 84 138
-731.540918 789.969873 2447.725677 88 124 215
-746.994972 709.386253 2400.336647 12 30 81
-738.274622 675.869846 2399.205971 16 45 118
-744.114780 -115.649390 2170.820045 60 96 151
-736.512089 689.188194 2398.312187 81 130 206
-727.018738 839.732075 2442.120934 60 75 153
-743.009758 -112.259650 2156.630707 107 151 204
-712.020588 683.060646 2405.059242 16 34 105
-712.020588 683.060646 2405.059242 16 34 105
-741.940641 -189.482427 2133.049583 99 132 191
-713.318634 751.020050 2416.674423 6 18 51
-745.252037 -196.592116 2118.298721 110 140 199
-724.692345 632.759380 2364.402199 25 35 89
-731.001949 -179.720461 2137.940025 48 78 137
-1174.993992 1087.847424 1920.358086 65 86 129
-727.488518 -109.473920 2153.342056 54 73 140
-706.302547 673.353529 2388.066864 23 36 102
-709.528589 828.143692 2422.567558 13 32 90
-706.214476 578.640890 2357.007790 26 41 97
-217.781568 -402.327442 2691.542244 80 88 99
-699.136829 752.265310 2393.387604 68 102 193
-225.899053 -373.093939 2681.130219 53 59 72
-732.035351 340.659976 2240.108299 81 87 117
-732.035351 340.659976 2240.108299 81 87 117
-106.971920 -429.266691 2803.287125 100 107 116
-685.316420 731.754303 2389.300537 17 27 64
-744.343805 -111.660802 2098.013496 53 85 150
-702.483511 -98.959893 2145.269585 53 85 150
-677.723646 779.003763 2394.459343 85 126 213
-676.588011 779.442406 2395.688629 85 126 213
-682.229900 697.683716 2364.189720 75 110 204
-664.075518 931.311607 2443.148994 87 136 214
-654.284954 888.490486 2437.240219 25 39 106
-671.571636 472.778273 2307.525444 44 68 140
-694.463062 -240.816998 2094.971275 180 194 213
-662.588882 617.062378 2353.264809 29 32 73
-662.588882 617.062378 2353.264809 29 32 73
-640.712690 577.638245 2343.950462 34 52 125
-679.339600 -235.979843 2081.412888 183 195 215
-629.816437 663.708925 2367.190361 37 46 94
-633.555746 590.125561 2337.780762 82 125 209
-629.109192 760.578871 2380.616188 22 39 80
-625.161695 762.265110 2384.864807 22 39 80
-635.768318 296.913671 2234.757423 58 64 90
-604.553986 943.015194 2423.594856 39 37 90
-85.058868 -406.659317 2695.280457 74 79 88
-618.766785 336.733365 2250.868797 119 137 163
-606.632185 376.879358 2268.029213 94 109 139
-580.809307 904.313469 2418.098450 95 128 210
-624.635649 61.186415 2157.539368 75 142 205
-578.260279 726.186180 2367.506981 74 125 208
-564.662409 759.330320 2377.424622 107 145 227
-559.156370 644.600677 2352.124786 25 46 127
-611.227369 3.893227 2135.704994 24 29 38
-583.785009 374.080753 2249.526596 165 187 206
-548.543501 748.880053 2379.770660 43 57 125
-590.480804 293.449903 2218.367195 187 218 235
-553.028297 779.740667 2370.164490 35 43 100
-512.934351 985.421562 2461.022949 33 40 90
-534.286356 851.821136 2404.171944 68 114 201
-537.422752 815.023804 2390.066338 72 101 191
-65.239722 -386.175275 2635.199547 61 68 77
-517.575216 902.640152 2429.185867 64 122 204
-517.575216 902.640152 2429.185867 64 122 204
-513.012886 844.560432 2418.073845 27 33 96
-564.546442 285.807776 2214.399910 195 220 236
-511.519575 962.069798 2434.939957 87 138 171
-601.815367 -81.211370 2084.357071 22 25 29
-508.441210 984.677696 2443.302727 75 126 188
-551.262951 255.263972 2216.263390 169 197 219
-513.802481 746.135569 2372.677040 20 30 80
-513.802481 746.135569 2372.677040 20 30 80
-542.965174 362.227654 2241.947746 187 215 231
-507.162285 796.740770 2384.591103 85 129 217
-567.603207 115.368748 2143.768692 53 66 104
-559.862614 117.483139 2151.523209 53 66 104
-602.182388 441.063118 2174.277115 131 173 232
